ply
format ascii 1.0
comment made by @arthurmuchir
element vertex 929
property float x
property float y
property float z
end_header
-106.308105 -102.21932 583.0
-102.74534 -102.74532 586.0
-98.97217 -103.095985 588.0
-95.009636 -103.271324 589.0
-110.01815 -105.9434 581.0
-106.12576 -106.12575 582.0
-102.21934 -106.30809 583.0
-98.4672 -106.67279 585.0
-94.848335 -107.219826 588.0
-113.5038 -109.450096 578.0
-109.8288 -109.82881 580.0
-105.76107 -109.82881 580.0
-101.86867 -110.01818 581.0
-98.13057 -110.3969 583.0
-94.52572 -110.96498 586.0
-117.15073 -113.111046 576.0
-113.30743 -113.30743 577.0
-109.45007 -113.50379 578.0
-105.57872 -113.700165 579.0
-101.86867 -114.09292 581.0
-98.13057 -114.48566 583.0
-120.76961 -116.74395 574.0
-116.74396 -116.74395 574.0
-112.7183 -116.74395 574.0
-109.26072 -117.3541 577.0
-105.57872 -117.76088 579.0
-101.86867 -118.167656 581.0
-98.13057 -118.57444 583.0
-124.57784 -120.5592 573.0
-120.559204 -120.5592 573.0
-116.54057 -120.5592 573.0
-112.521935 -120.5592 573.0
-109.07136 -121.1904 576.0
-105.39637 -121.6112 578.0
-101.86867 -122.2424 581.0
-127.923195 -123.9256 570.0
-123.70818 -123.70819 569.0
-119.928 -123.9256 570.0
-116.33718 -124.36042 572.0
-112.521935 -124.577835 573.0
-109.26072 -125.447495 577.0
-105.39637 -125.66491 578.0
-81.28454 -132.62213 610.0
-77.13265 -132.83954 611.0
-73.08594 -133.27437 613.0
-127.47434 -127.47434 568.0
-123.490776 -127.47434 568.0
-119.717606 -127.69876 569.0
-116.13379 -128.14763 571.0
-112.521935 -128.59647 573.0
-109.07136 -129.26974 576.0
-85.0016 -136.00255 606.0
-81.018036 -136.45142 608.0
-76.75394 -136.45142 608.0
-72.84748 -137.12468 611.0
-68.67456 -137.34912 612.0
-131.68938 -131.68935 569.0
-127.249916 -131.22647 567.0
-123.490776 -131.4579 568.0
-119.717606 -131.68935 569.0
-116.13379 -132.15224 571.0
-112.521935 -132.61511 573.0
-109.07136 -133.30943 576.0
-88.66256 -139.32687 602.0
-84.44054 -139.32687 602.0
-80.48502 -139.78975 604.0
-76.50146 -140.25262 606.0
-72.60904 -140.94695 609.0
-134.72614 -134.72614 565.0
-130.76361 -134.72614 565.0
-126.80106 -134.72614 565.0
-123.27336 -135.20305 567.0
-119.928 -135.91841 570.0
-116.33718 -136.39532 572.0
-112.521935 -136.63377 573.0
-96.13879 -142.1182 596.0
-92.11311 -142.35664 597.0
-88.22072 -142.83357 599.0
-84.16 -143.072 600.0
-80.21851 -143.54892 602.0
-76.24897 -144.02582 604.0
-72.48981 -144.97963 608.0
-138.68867 -138.68867 565.0
-134.72614 -138.68867 565.0
-130.76361 -138.68867 565.0
-126.80106 -138.68867 565.0
-122.83854 -138.68867 565.0
-119.717606 -139.67055 569.0
-116.33718 -140.40694 572.0
-99.98209 -145.80722 594.0
-95.81617 -145.80722 594.0
-91.80453 -146.05267 595.0
-87.92616 -146.54361 597.0
-84.16 -147.28001 600.0
-80.08526 -147.52547 601.0
-76.24897 -148.26187 604.0
-142.6512 -142.6512 565.0
-138.68867 -142.6512 565.0
-134.48769 -142.39873 564.0
-130.53217 -142.39873 564.0
-126.80106 -142.6512 565.0
-122.83854 -142.6512 565.0
-119.5072 -143.40865 568.0
-107.40218 -148.71072 589.0
-103.79734 -149.46817 592.0
-99.81377 -149.72064 593.0
-95.49356 -149.46817 592.0
-91.49594 -149.72064 593.0
-87.778885 -150.47809 596.0
-84.01974 -151.23553 599.0
-80.08526 -151.74048 601.0
-142.39871 -146.35425 564.0
-137.95227 -145.83527 562.0
-134.01079 -145.83527 562.0
-130.30074 -146.09476 563.0
-126.80106 -146.61372 565.0
-122.83854 -146.61372 565.0
-111.15432 -152.32259 587.0
-107.21984 -152.58208 588.0
-103.096 -152.58208 588.0
-99.30881 -153.10107 590.0
-95.33225 -153.36057 591.0
-91.49594 -153.87955 593.0
-87.778885 -154.65802 596.0
-83.87947 -155.17702 598.0
-149.51025 -149.51024 561.0
-145.57576 -149.51024 561.0
-141.64128 -149.51024 561.0
-137.7068 -149.51024 561.0
-134.01079 -149.77673 562.0
-130.30074 -150.04324 563.0
-126.80106 -150.57628 565.0
-123.27336 -151.10928 567.0
-114.68204 -155.6399 584.0
-110.58624 -155.6399 584.0
-106.672806 -155.9064 585.0
-102.92067 -156.4394 587.0
-99.14049 -156.97243 589.0
-95.33225 -157.50543 591.0
-91.49594 -158.03845 593.0
-157.37921 -153.44472 561.0
-153.1712 -153.1712 560.0
-148.71074 -152.62415 558.0
-144.79727 -152.62415 558.0
-141.38881 -153.1712 560.0
-137.7068 -153.44472 561.0
-134.24924 -153.99174 563.0
-130.76361 -154.5388 565.0
-126.80106 -154.5388 565.0
-118.57443 -159.46216 583.0
-114.28929 -159.18863 582.0
-110.20752 -159.18863 582.0
-106.308105 -159.46216 583.0
-102.74534 -160.28271 586.0
-98.97217 -160.82976 588.0
-95.33225 -161.65031 591.0
-160.45105 -156.53758 558.0
-156.53761 -156.53758 558.0
-152.35065 -156.25706 557.0
-148.17772 -155.97653 556.0
-144.53778 -156.25706 557.0
-141.13632 -156.81813 559.0
-137.7068 -157.37918 561.0
-134.48769 -158.2208 564.0
-130.76361 -158.50133 565.0
-127.249916 -159.0624 567.0
-121.611206 -162.14825 578.0
-118.167656 -162.98985 581.0
-113.896545 -162.70934 580.0
-109.8288 -162.70934 580.0
-105.94341 -162.98985 581.0
-102.57001 -164.11198 585.0
-98.80385 -164.67307 587.0
-167.3732 -159.5884 555.0
-163.18623 -159.30084 554.0
-159.30086 -159.30084 554.0
-155.41547 -159.30084 554.0
-151.53009 -159.30084 554.0
-147.64471 -159.30084 554.0
-144.27829 -159.87593 556.0
-140.88383 -160.45102 558.0
-137.46133 -161.02612 560.0
-134.24924 -161.88876 563.0
-130.76361 -162.46385 565.0
-127.47434 -163.32649 568.0
-125.447495 -165.91441 577.0
-121.4008 -165.91441 577.0
-117.35411 -165.91441 577.0
-113.5038 -166.20197 578.0
-109.8288 -166.77705 580.0
-106.12576 -167.35216 582.0
-102.39467 -167.92723 584.0
-170.33984 -162.59714 552.0
-166.77007 -162.8917 553.0
-162.59712 -162.59714 552.0
-159.30086 -163.18625 554.0
-155.41547 -163.18625 554.0
-151.53009 -163.18625 554.0
-147.64471 -163.18625 554.0
-144.0188 -163.48082 555.0
-140.63136 -164.06993 557.0
-137.21587 -164.65904 559.0
-134.01079 -165.54272 562.0
-130.76361 -166.4264 565.0
-127.923195 -167.89922 570.0
-124.57784 -168.7829 573.0
-120.98 -169.37201 575.0
-117.15073 -169.66656 576.0
-113.30743 -169.96114 577.0
-109.45007 -170.25569 578.0
-105.94341 -171.13937 581.0
-180.30579 -164.96062 547.0
-177.11472 -165.56377 549.0
-173.2644 -165.56377 549.0
-169.4141 -165.56377 549.0
-165.86534 -165.86534 550.0
-162.30257 -166.16692 551.0
-158.4382 -166.16692 551.0
-154.8544 -166.46848 552.0
-151.53009 -167.07164 554.0
-147.64471 -167.07164 554.0
-144.0188 -167.37321 555.0
-140.63136 -167.97635 557.0
-136.9704 -168.27792 558.0
-134.01079 -169.48422 562.0
-130.76361 -170.38895 565.0
-127.47434 -171.29366 568.0
-124.14301 -172.19838 571.0
-120.559204 -172.80153 573.0
-116.947334 -173.40468 575.0
-113.30743 -174.00783 577.0
-109.63944 -174.61096 579.0
-74.86034 -178.833 593.0
-70.70141 -178.833 593.0
-62.909603 -180.34087 598.0
-58.715633 -180.34087 598.0
-54.61284 -180.64244 599.0
-178.98727 -167.56256 543.0
-175.17905 -167.56256 543.0
-172.31761 -168.48831 546.0
-168.79692 -168.7969 547.0
-165.2622 -169.1055 548.0
-161.71342 -169.41408 549.0
-158.15067 -169.72267 550.0
-154.29333 -169.72267 550.0
-150.70953 -170.03127 551.0
-147.64471 -170.95702 554.0
-143.7593 -170.95702 554.0
-140.37889 -171.57419 556.0
-136.9704 -172.19136 558.0
-133.77232 -173.11711 561.0
-130.76361 -174.35147 565.0
-127.0255 -174.66006 566.0
-123.925606 -175.8944 570.0
-120.3488 -176.51158 572.0
-116.74396 -177.12875 574.0
-113.111046 -177.74593 576.0
-86.60064 -181.44896 588.0
-82.47681 -181.44896 588.0
-78.48622 -181.75755 589.0
-74.60786 -182.37473 591.0
-70.70141 -182.9919 593.0
-66.43029 -182.6833 592.0
-62.383602 -182.9919 593.0
-58.617447 -184.22624 597.0
-54.43049 -184.22624 597.0
-186.60376 -171.3708 543.0
-182.12225 -170.7396 541.0
-177.66876 -170.1084 539.0
-172.27551 -168.5304 534.0
-168.53041 -168.5304 534.0
-164.7853 -168.5304 534.0
-161.04018 -168.5304 534.0
-157.29503 -168.5304 534.0
-154.12502 -169.1616 536.0
-149.80481 -168.5304 534.0
-145.51265 -167.8992 532.0
-147.64471 -174.8424 554.0
-143.7593 -174.8424 554.0
-140.1264 -175.158 555.0
-136.9704 -176.1048 558.0
-133.53387 -176.73601 560.0
-130.53217 -177.9984 564.0
-127.0255 -178.6296 566.0
-123.70818 -179.5764 569.0
-120.138405 -180.2076 571.0
-116.54057 -180.8388 573.0
-93.71919 -183.3636 581.0
-90.10731 -184.3104 584.0
-86.158806 -184.626 585.0
-82.056 -184.626 585.0
-78.21971 -185.2572 587.0
-74.22913 -185.5728 588.0
-70.34373 -186.204 590.0
-66.43029 -186.8352 592.0
-62.383602 -187.1508 593.0
-58.51926 -188.0976 596.0
-54.43049 -188.4132 597.0
-183.5109 -172.27551 534.0
-179.0925 -171.6303 532.0
-174.70213 -170.98506 530.0
-170.66246 -170.66245 529.0
-166.95241 -170.66245 529.0
-163.24236 -170.66245 529.0
-159.53232 -170.66245 529.0
-156.1168 -170.98506 530.0
-152.68727 -171.30768 531.0
-148.96321 -171.30768 531.0
-145.23914 -171.30768 531.0
-142.04807 -171.95291 533.0
-138.30994 -171.95291 533.0
-134.82433 -172.27551 534.0
-136.9704 -180.01823 558.0
-133.77232 -180.98608 561.0
-130.53217 -181.95392 564.0
-126.80106 -182.27654 565.0
-123.27336 -182.92175 567.0
-119.928 -183.8896 570.0
-116.33718 -184.53482 572.0
-105.21403 -186.14789 577.0
-101.167336 -186.14789 577.0
-97.28897 -186.4705 578.0
-93.39657 -186.79312 579.0
-89.64442 -187.43834 581.0
-85.71696 -187.76096 582.0
-81.77547 -188.08356 583.0
-77.9532 -188.7288 585.0
-74.10289 -189.37402 587.0
-70.2245 -190.01924 589.0
-66.31808 -190.66447 591.0
-62.173203 -190.66447 591.0
-58.2247 -191.30971 593.0
-54.339317 -192.27754 596.0
-187.25601 -176.02063 534.0
-182.13628 -174.70213 530.0
-177.74594 -174.04288 528.0
-173.38364 -173.38362 526.0
-169.69461 -173.38362 526.0
-166.0056 -173.38362 526.0
-162.3166 -173.38362 526.0
-158.62758 -173.38362 526.0
-155.23312 -173.71324 527.0
-151.82465 -174.04288 528.0
-148.40215 -174.37251 529.0
-144.6921 -174.37251 529.0
-141.24855 -174.70213 530.0
-137.79095 -175.03175 531.0
-134.57184 -175.69101 533.0
-131.32468 -176.35027 535.0
-134.01079 -185.25018 562.0
-130.06929 -185.25018 562.0
-126.80106 -186.23906 565.0
-122.83854 -186.23906 565.0
-119.717606 -187.55757 569.0
-116.13379 -188.21683 571.0
-112.521935 -188.87607 573.0
-108.50327 -188.87607 573.0
-104.666985 -189.20569 574.0
-100.641335 -189.20569 574.0
-96.952324 -189.86496 576.0
-93.07396 -190.19458 577.0
-89.33584 -190.85384 579.0
-85.4224 -191.18346 580.0
-81.77547 -192.17235 583.0
-77.9532 -192.83159 585.0
-74.10289 -193.49084 587.0
-70.10528 -193.82047 588.0
-66.09365 -194.1501 589.0
-194.74623 -179.76575 534.0
-190.64345 -179.42911 533.0
-185.50267 -178.08255 529.0
-181.10532 -177.40927 527.0
-176.73601 -176.736 525.0
-173.054 -176.736 525.0
-169.37201 -176.736 525.0
-165.69 -176.736 525.0
-162.00801 -176.736 525.0
-158.326 -176.736 525.0
-154.93857 -177.07263 526.0
-151.5371 -177.40927 527.0
-148.12161 -177.74591 528.0
-144.6921 -178.08255 529.0
-140.98204 -178.08255 529.0
-137.53146 -178.41919 530.0
-133.8144 -178.41919 530.0
-130.83374 -179.42911 533.0
-128.2879 -181.1123 538.0
-124.74617 -181.44896 539.0
-126.57664 -189.86496 564.0
-122.83854 -190.20158 565.0
-119.0864 -190.53824 566.0
-115.72703 -191.54816 569.0
-112.12918 -192.22144 571.0
-108.31392 -192.55807 572.0
-104.30229 -192.55807 572.0
-100.29067 -192.55807 572.0
-96.61569 -193.23135 574.0
-92.91264 -193.90463 576.0
-89.18154 -194.57791 578.0
-85.4224 -195.25119 580.0
-81.77547 -196.26111 583.0
-77.9532 -196.93439 585.0
-202.99394 -184.1982 536.0
-198.49138 -183.5109 534.0
-194.38155 -183.16724 533.0
-189.21272 -181.79262 529.0
-184.45067 -180.76166 526.0
-180.418 -180.41801 525.0
-176.39938 -180.07436 524.0
-172.39474 -179.73071 523.0
-168.72678 -179.73071 523.0
-165.3744 -180.07436 524.0
-161.69943 -180.07436 524.0
-158.326 -180.41801 525.0
-154.93857 -180.76166 526.0
-151.5371 -181.10532 527.0
-147.84106 -181.10532 527.0
-144.6921 -181.79262 529.0
-140.98204 -181.79262 529.0
-137.27197 -181.79262 529.0
-133.8144 -182.13629 530.0
-130.3428 -182.47993 531.0
-127.095634 -183.16724 533.0
-124.05185 -184.1982 536.0
-121.1904 -185.57281 540.0
-117.403206 -185.57281 540.0
-118.87601 -194.16414 565.0
-115.523636 -195.19511 568.0
-111.736435 -195.53877 569.0
-107.74584 -195.53877 569.0
-104.11995 -196.22607 571.0
-100.29067 -196.56972 572.0
-96.44737 -196.91338 573.0
-92.91264 -197.94434 576.0
-89.18154 -198.63164 578.0
-207.13881 -188.30801 537.0
-202.2365 -187.25601 534.0
-196.63284 -185.50267 529.0
-192.19339 -184.80135 527.0
-187.42432 -183.74934 524.0
-183.39867 -183.39867 523.0
-179.38705 -183.04802 522.0
-175.38945 -182.69734 521.0
-171.73549 -182.69734 521.0
-168.40416 -183.04802 522.0
-165.0588 -183.39867 523.0
-161.69943 -183.74934 524.0
-158.326 -184.1 525.0
-154.93857 -184.45067 526.0
-151.82465 -185.15201 528.0
-148.40215 -185.50267 529.0
-144.6921 -185.50267 529.0
-140.98204 -185.50267 529.0
-137.27197 -185.50267 529.0
-133.8144 -185.85335 530.0
-130.3428 -186.20401 531.0
-127.095634 -186.90533 533.0
-123.58897 -187.25601 534.0
-120.51712 -188.30801 537.0
-117.18578 -189.00934 539.0
-113.616005 -189.36002 540.0
-115.320244 -198.82802 567.0
-111.54007 -199.17867 568.0
-107.55647 -199.17867 568.0
-103.93761 -199.88002 570.0
-100.11533 -200.23067 571.0
-96.44737 -200.932 573.0
-249.95522 -193.1472 540.0
-243.43282 -191.00113 534.0
-243.27852 -193.86256 542.0
-240.80281 -194.9356 545.0
-220.47116 -193.86256 542.0
-216.66992 -193.86256 542.0
-210.5122 -191.71648 536.0
-205.98161 -191.00113 534.0
-200.3429 -189.21274 529.0
-195.14601 -187.782 525.0
-190.7346 -187.06665 523.0
-186.35127 -186.35129 521.0
-182.69734 -186.35129 521.0
-179.0434 -186.35129 521.0
-175.38945 -186.35129 521.0
-171.73549 -186.35129 521.0
-168.40416 -186.70897 522.0
-165.0588 -187.06665 523.0
-161.69943 -187.42433 524.0
-158.326 -187.782 525.0
-155.52768 -188.85504 528.0
-152.39973 -189.5704 530.0
-148.68268 -189.5704 530.0
-144.6921 -189.21274 529.0
-140.98204 -189.21274 529.0
-137.27197 -189.21274 529.0
-134.06688 -189.92809 531.0
-130.3428 -189.92809 531.0
-127.095634 -190.64345 533.0
-123.58897 -191.00113 534.0
-120.06826 -191.3588 535.0
-116.75096 -192.07416 537.0
-113.195206 -192.43185 538.0
-109.62543 -192.78954 539.0
-111.54007 -203.16225 568.0
-107.74584 -203.51993 569.0
-103.93761 -203.8776 570.0
-100.29067 -204.59297 572.0
-251.32983 -192.19339 527.0
-247.63379 -192.19339 527.0
-243.93776 -192.19339 527.0
-241.60934 -193.28748 530.0
-239.6877 -194.74625 534.0
-239.91914 -198.02849 543.0
-236.11089 -198.02849 543.0
-232.30266 -198.02849 543.0
-228.07361 -197.66379 542.0
-223.44481 -196.9344 540.0
-219.25085 -196.5697 539.0
-214.27136 -195.47562 536.0
-208.94124 -194.01686 532.0
-204.05295 -192.92278 529.0
-199.20674 -191.82869 526.0
-194.4026 -190.73462 523.0
-190.00523 -190.00522 521.0
-185.9936 -189.64053 520.0
-182.34668 -189.64053 520.0
-178.69974 -189.64053 520.0
-175.05281 -189.64053 520.0
-171.73549 -190.00522 521.0
-168.40416 -190.36992 522.0
-165.0588 -190.73462 523.0
-161.69943 -191.0993 524.0
-158.62758 -191.82869 526.0
-156.1168 -193.28748 530.0
-153.26237 -194.38156 533.0
-149.52428 -194.38156 533.0
-149.88896 -199.85196 548.0
-146.31218 -200.21664 549.0
-142.98083 -200.94603 551.0
-139.62144 -201.67542 553.0
-130.83374 -194.38156 533.0
-127.095634 -194.38156 533.0
-123.58897 -194.74625 534.0
-119.84384 -194.74625 534.0
-116.53355 -195.47562 536.0
-112.9848 -195.84032 537.0
-109.62543 -196.5697 539.0
-267.7621 -194.40259 523.0
-263.5891 -194.03088 522.0
-260.42612 -194.40259 523.0
-256.75815 -194.40259 523.0
-253.5741 -194.77429 524.0
-249.42221 -194.40259 523.0
-246.2241 -194.77429 524.0
-243.01201 -195.146 525.0
-240.24174 -195.8894 527.0
-241.93196 -200.3499 539.0
-238.59361 -200.7216 540.0
-234.80641 -200.7216 540.0
-231.01921 -200.7216 540.0
-225.9696 -199.60648 537.0
-221.78967 -199.23477 536.0
-217.21698 -198.49135 534.0
-212.27257 -197.37624 531.0
-207.76299 -196.63283 529.0
-203.28148 -195.8894 527.0
-198.828 -195.146 525.0
-194.0309 -194.03088 522.0
-190.00523 -193.65918 521.0
-185.9936 -193.28748 520.0
-182.34668 -193.28748 520.0
-178.69974 -193.28748 520.0
-175.05281 -193.28748 520.0
-171.73549 -193.65918 521.0
-168.72678 -194.40259 523.0
-165.3744 -194.77429 524.0
-162.00801 -195.146 525.0
-158.92915 -195.8894 527.0
-155.82224 -196.63283 529.0
-157.00047 -202.95183 546.0
-153.1712 -202.95183 546.0
-149.61545 -203.32355 547.0
-146.04567 -203.69525 548.0
-142.72133 -204.43867 550.0
-138.864 -204.43867 550.0
-135.25214 -204.81038 551.0
-131.38779 -204.81038 551.0
-128.21777 -205.92549 554.0
-120.06826 -198.86307 535.0
-121.09923 -207.04062 557.0
-117.6136 -207.78403 559.0
-287.74307 -199.20671 526.0
-285.1341 -199.96416 528.0
-271.43002 -198.07056 523.0
-266.73813 -197.31311 521.0
-263.08417 -197.31311 521.0
-259.4302 -197.31311 521.0
-255.77628 -197.31311 521.0
-252.12234 -197.31311 521.0
-248.46838 -197.31311 521.0
-243.87463 -196.55566 519.0
-240.6976 -196.9344 520.0
-239.33 -198.828 525.0
-241.03426 -203.37263 537.0
-237.70995 -203.75136 538.0
-233.50192 -203.37263 537.0
-228.88014 -202.6152 535.0
-224.70721 -202.23647 534.0
-220.9621 -202.23647 534.0
-216.40343 -201.47903 532.0
-211.8728 -200.7216 530.0
-207.37025 -199.96416 528.0
-202.89574 -199.20671 526.0
-198.4493 -198.44926 524.0
-194.4026 -198.07056 523.0
-190.00523 -197.31311 521.0
-185.9936 -196.9344 520.0
-182.34668 -196.9344 520.0
-178.69974 -196.9344 520.0
-175.05281 -196.9344 520.0
-171.73549 -197.31311 521.0
-168.72678 -198.07056 523.0
-165.69 -198.828 525.0
-162.3166 -199.20671 526.0
-156.42538 -206.02367 544.0
-153.1712 -206.78111 546.0
-149.34193 -206.78111 546.0
-146.04567 -207.53856 548.0
-142.46184 -207.91727 549.0
-138.61151 -207.91727 549.0
-134.7612 -207.91727 549.0
-131.14934 -208.296 550.0
-127.75489 -209.05344 552.0
-124.10794 -209.43216 553.0
-120.664406 -210.1896 555.0
-117.1928 -210.94704 557.0
-289.3842 -204.05293 529.0
-281.3539 -200.96706 521.0
-276.10092 -199.80986 518.0
-271.94202 -199.42413 517.0
-268.31613 -199.42413 517.0
-264.69022 -199.42413 517.0
-261.06433 -199.42413 517.0
-257.43845 -199.42413 517.0
-253.81255 -199.42413 517.0
-249.21881 -198.65266 515.0
-245.13005 -198.26692 514.0
-241.99507 -198.65266 515.0
-239.30896 -199.42413 517.0
-235.68307 -199.42413 517.0
-240.13654 -206.36732 535.0
-235.94258 -205.98158 534.0
-232.19743 -205.98158 534.0
-228.02452 -205.59586 533.0
-223.8656 -205.21013 532.0
-219.30695 -204.43866 530.0
-215.58987 -204.43866 530.0
-211.47304 -204.05293 529.0
-207.37025 -203.66719 528.0
-202.89574 -202.89574 526.0
-198.4493 -202.12425 524.0
-194.0309 -201.35278 522.0
-190.00523 -200.96706 521.0
-185.9936 -200.58133 520.0
-182.34668 -200.58133 520.0
-179.0434 -200.96706 521.0
-175.38945 -200.96706 521.0
-172.06512 -201.35278 522.0
-169.0494 -202.12425 524.0
-165.69 -202.51 525.0
-162.62518 -203.28146 527.0
-163.15118 -208.68173 541.0
-159.65152 -209.06746 542.0
-156.13785 -209.45319 543.0
-152.61014 -209.83893 544.0
-149.0684 -210.22466 545.0
-145.51265 -210.61038 546.0
-141.68336 -210.61038 546.0
-138.10657 -210.99612 547.0
-134.27028 -210.99612 547.0
-130.67244 -211.38185 548.0
-127.292015 -212.15334 550.0
-123.659096 -212.53906 551.0
-120.44698 -213.69626 554.0
-116.56161 -213.69626 554.0
-112.67622 -213.69626 554.0
-108.79083 -213.69626 554.0
-280.63153 -201.47902 513.0
-277.0337 -201.47902 513.0
-273.96884 -201.87178 514.0
-270.89 -202.26451 515.0
-267.27814 -202.26451 515.0
-263.15433 -201.87178 514.0
-259.54944 -201.87178 514.0
-254.45074 -200.69354 511.0
-251.35788 -201.08629 512.0
-247.76706 -201.08629 512.0
-244.17622 -201.08629 512.0
-240.58539 -201.08629 512.0
-238.38321 -202.26451 515.0
-235.68307 -203.05 517.0
-238.34114 -208.54848 531.0
-234.61705 -208.54848 531.0
-230.89296 -208.54848 531.0
-227.16888 -208.54848 531.0
-223.024 -208.15572 530.0
-218.89316 -207.76297 529.0
-215.18312 -207.76297 529.0
-211.07327 -207.37022 528.0
-206.9775 -206.97748 527.0
-202.51001 -206.19199 525.0
-198.4493 -205.79924 524.0
-194.0309 -205.01375 522.0
-190.00523 -204.621 521.0
-186.35127 -204.621 521.0
-182.69734 -204.621 521.0
-179.0434 -204.621 521.0
-175.72609 -205.01375 522.0
-172.72437 -205.79924 524.0
-169.37201 -206.19199 525.0
-166.0056 -206.58475 526.0
-166.63681 -212.08319 540.0
-162.84961 -212.08319 540.0
-159.06241 -212.08319 540.0
-155.56274 -212.47592 541.0
-152.3296 -213.26143 543.0
-148.79489 -213.65417 544.0
-144.97964 -213.65417 544.0
-141.68336 -214.43967 546.0
-137.85408 -214.43967 546.0
-134.02481 -214.43967 546.0
-130.19553 -214.43967 546.0
-126.597694 -214.83241 547.0
-123.210236 -215.6179 549.0
-119.79475 -216.40341 551.0
-116.351204 -217.18889 553.0
-112.47284 -217.18889 553.0
-108.59447 -217.18889 553.0
-104.90544 -217.58165 554.0
-100.83771 -217.18889 553.0
-97.13467 -217.58165 554.0
-278.4434 -203.47784 509.0
-275.4136 -203.87761 510.0
-272.3698 -204.27736 511.0
-267.208 -203.0781 508.0
-263.12625 -202.67833 507.0
-260.59445 -203.47784 509.0
-256.0147 -202.67833 507.0
-252.45897 -202.67833 507.0
-249.39415 -203.0781 508.0
-246.31529 -203.47784 509.0
-242.74551 -203.47784 509.0
-239.64561 -203.87761 510.0
-236.99457 -204.67712 512.0
-234.31548 -205.47665 514.0
-237.89227 -211.87282 530.0
-234.1752 -211.87282 530.0
-230.45815 -211.87282 530.0
-226.74107 -211.87282 530.0
-222.60321 -211.47305 529.0
-218.47937 -211.0733 528.0
-214.77634 -211.0733 528.0
-210.67352 -210.67352 527.0
-206.58475 -210.27376 526.0
-202.51001 -209.87401 525.0
-198.4493 -209.47424 524.0
-194.4026 -209.0745 523.0
-190.36992 -208.67473 522.0
-186.35127 -208.27496 521.0
-182.69734 -208.27496 521.0
-179.38705 -208.67473 522.0
-176.39938 -209.47424 524.0
-173.054 -209.87401 525.0
-170.01723 -210.67352 527.0
-169.4772 -214.67113 537.0
-166.01962 -215.07089 538.0
-162.54805 -215.47066 539.0
-159.06241 -215.8704 540.0
-155.2752 -215.8704 540.0
-151.76854 -216.27017 541.0
-148.24785 -216.66994 542.0
-144.71313 -217.0697 543.0
-140.90488 -217.0697 543.0
-137.60161 -217.8692 545.0
-133.77934 -217.8692 545.0
-129.95708 -217.8692 545.0
-126.36625 -218.26897 546.0
-122.76138 -218.66873 547.0
-119.57734 -219.868 550.0
-115.72 -219.868 550.0
-111.86267 -219.868 550.0
-108.00535 -219.868 550.0
-104.147995 -219.868 550.0
-100.473015 -220.26776 551.0
-96.60867 -220.26776 551.0
-92.91264 -220.66753 552.0
-89.3639 -221.46706 554.0
-85.47851 -221.46706 554.0
-81.59312 -221.46706 554.0
-77.70773 -221.46706 554.0
-73.955605 -221.8668 555.0
-70.31569 -222.66634 557.0
-66.52847 -223.0661 558.0
-62.727253 -223.46587 559.0
-276.80225 -205.82732 506.0
-272.17343 -205.01376 504.0
-269.17175 -205.42055 505.0
-266.156 -205.82732 506.0
-261.5693 -205.01376 504.0
-258.54654 -205.42055 505.0
-254.49983 -205.01376 504.0
-250.96512 -205.01376 504.0
-248.41228 -205.82732 506.0
-245.34746 -206.23409 507.0
-241.7917 -206.23409 507.0
-239.1757 -207.04764 509.0
-236.53168 -207.86118 511.0
-233.8596 -208.67473 513.0
-237.44344 -215.18309 529.0
-233.73338 -215.18309 529.0
-229.58849 -214.77634 528.0
-225.88545 -214.77634 528.0
-221.76161 -214.36955 527.0
-218.06558 -214.36955 527.0
-214.36957 -214.36955 527.0
-210.27376 -213.96278 526.0
-206.58475 -213.96278 526.0
-202.51001 -213.55602 525.0
-198.4493 -213.14923 524.0
-194.4026 -212.74246 523.0
-190.7346 -212.74246 523.0
-187.06665 -212.74246 523.0
-183.74934 -213.14923 524.0
-180.418 -213.55602 525.0
-177.07265 -213.96278 526.0
-175.69101 -216.8102 533.0
-172.92075 -218.03052 536.0
-169.4772 -218.4373 537.0
-166.01962 -218.84407 538.0
-162.24648 -218.84407 538.0
-158.76784 -219.25082 539.0
-155.2752 -219.6576 540.0
-151.488 -219.6576 540.0
-147.7008 -219.6576 540.0
-144.18011 -220.06438 541.0
-140.90488 -220.87793 543.0
-137.34912 -221.28471 544.0
-133.77934 -221.69148 545.0
-129.95708 -221.69148 545.0
-126.36625 -222.09824 546.0
-122.536964 -222.09824 546.0
-119.14251 -222.91179 548.0
-115.509605 -223.31856 549.0
-111.86267 -223.72534 550.0
-107.80897 -223.31856 549.0
-103.76927 -222.91179 548.0
-100.29067 -223.72534 550.0
-96.433334 -223.72534 550.0
-92.74432 -224.13213 551.0
-89.04129 -224.5389 552.0
-85.3242 -224.94568 553.0
-81.44584 -224.94568 553.0
-77.70773 -225.35242 554.0
-73.82236 -225.35242 554.0
-69.93697 -225.35242 554.0
-66.29002 -226.16597 556.0
-62.615036 -226.97954 558.0
-58.912003 -227.79309 560.0
-273.52002 -206.89334 500.0
-271.09338 -207.7209 502.0
-267.03967 -207.30711 501.0
-263.526 -207.30711 501.0
-260.5313 -207.7209 502.0
-257.01062 -207.7209 502.0
-253.99487 -208.13469 503.0
-250.96512 -208.54848 504.0
-248.41228 -209.37605 506.0
-244.37961 -208.96227 505.0
-240.83788 -208.96227 505.0
-238.23592 -209.78984 507.0
-235.60593 -210.61742 509.0
-233.40375 -211.85878 512.0
-236.54572 -218.06558 527.0
-232.40785 -217.6518 526.0
-228.71883 -217.6518 526.0
-225.02982 -217.6518 526.0
-221.3408 -217.6518 526.0
-217.65181 -217.6518 526.0
-213.96278 -217.6518 526.0
-210.67352 -218.06558 527.0
-206.9775 -218.06558 527.0
-202.89574 -217.6518 526.0
-198.828 -217.238 525.0
-195.14601 -217.238 525.0
-191.0993 -216.82422 524.0
-187.78201 -217.238 525.0
-184.45067 -217.6518 526.0
-181.44896 -218.47937 528.0
-179.42914 -220.54831 533.0
-176.35027 -221.37585 535.0
-172.92075 -221.78964 536.0
-169.1616 -221.78964 536.0
-165.71104 -222.20343 537.0
-161.94489 -222.20343 537.0
-158.17873 -222.20343 537.0
-154.70012 -222.61722 538.0
-151.20747 -223.031 539.0
-147.7008 -223.4448 540.0
-143.9136 -223.4448 540.0
-140.64539 -224.27237 542.0
-137.34912 -225.09996 544.0
-133.53387 -225.09996 544.0
-129.95708 -225.51375 545.0
-126.36625 -225.92754 546.0
-122.76138 -226.34132 547.0
-119.35992 -227.1689 549.0
-115.509605 -227.1689 549.0
-111.659294 -227.1689 549.0
-107.80897 -227.1689 549.0
-103.95864 -227.1689 549.0
-100.108315 -227.1689 549.0
-96.433334 -227.58266 550.0
-92.74432 -227.99644 551.0
-88.87998 -227.99644 551.0
-85.169914 -228.41023 552.0
-81.44584 -228.82402 553.0
-77.70773 -229.23781 554.0
-73.82236 -229.23781 554.0
-69.93697 -229.23781 554.0
-66.17079 -229.6516 555.0
-62.502827 -230.47917 557.0

