ply
format ascii 1.0
comment made by @arthurmuchir
element vertex 700
property float x
property float y
property float z
end_header
-190.64345 -148.79488 663.0
-186.8352 -149.46815 666.0
-182.16434 -149.46815 666.0
-194.70416 -152.98183 661.0
-190.3559 -153.21327 662.0
-186.27414 -153.67615 664.0
-181.6173 -153.67615 664.0
-198.1337 -156.66386 657.0
-194.11504 -157.14076 659.0
-189.49326 -157.14076 659.0
-185.43254 -157.61768 661.0
-181.34377 -158.09457 663.0
-201.19852 -160.04428 652.0
-196.62582 -160.04428 652.0
-192.93678 -160.78069 655.0
-189.20572 -161.51709 658.0
-184.87148 -161.76254 659.0
-259.6827 -153.25537 607.0
-255.42561 -153.25537 607.0
-251.9961 -153.76033 609.0
-209.05345 -163.60704 648.0
-204.8244 -163.85953 649.0
-200.58134 -164.11201 650.0
-196.62582 -164.61696 652.0
-192.64223 -165.12193 654.0
-188.91817 -165.87936 657.0
-184.59094 -166.13185 658.0
-172.19136 -172.19136 682.0
-167.65373 -172.44385 683.0
-162.86363 -172.44385 683.0
-263.9398 -157.51247 607.0
-258.39926 -156.73398 604.0
-255.0048 -157.25296 606.0
-251.5823 -157.77196 608.0
-248.13174 -158.29092 610.0
-212.93883 -167.63269 646.0
-208.4082 -167.63269 646.0
-204.1932 -167.89218 647.0
-199.96416 -168.15169 648.0
-196.02269 -168.67067 650.0
-192.64223 -169.70865 654.0
-188.91817 -170.48712 657.0
-175.15799 -175.158 675.0
-171.18144 -175.93648 678.0
-166.91734 -176.45547 680.0
-162.86363 -177.23395 683.0
-261.76566 -160.43701 602.0
-257.54364 -160.43701 602.0
-253.74242 -160.70352 603.0
-249.92717 -160.97002 604.0
-247.3182 -162.03604 608.0
-216.1229 -171.09729 642.0
-211.94995 -171.36378 643.0
-207.76299 -171.6303 644.0
-203.87761 -172.1633 646.0
-199.96416 -172.69632 648.0
-196.02269 -173.22932 650.0
-192.34767 -174.02884 653.0
-183.80545 -179.09248 672.0
-179.62552 -179.62549 674.0
-175.15799 -179.892 675.0
-170.67648 -180.15851 676.0
-166.4264 -180.69151 678.0
-161.90982 -180.95802 679.0
-260.46118 -163.83847 599.0
-256.68802 -164.112 600.0
-252.9008 -164.38551 601.0
-248.6858 -164.38551 601.0
-246.50465 -165.75311 606.0
-220.2818 -175.32632 641.0
-215.78625 -175.32632 641.0
-211.62032 -175.59984 642.0
-207.44038 -175.87335 643.0
-203.87761 -176.69392 646.0
-199.96416 -177.24095 648.0
-195.41954 -177.24095 648.0
-187.11574 -182.43784 667.0
-182.71136 -182.71135 668.0
-178.5595 -183.25839 670.0
-174.12003 -183.53192 671.0
-170.42401 -184.62599 675.0
-165.93547 -184.89952 676.0
-161.67136 -185.44655 678.0
-259.59152 -167.4784 597.0
-255.40457 -167.4784 597.0
-252.0592 -168.03946 599.0
-248.272 -168.31999 600.0
-244.87756 -168.88106 602.0
-242.25456 -170.00319 606.0
-223.72534 -178.98026 638.0
-219.25082 -178.98026 638.0
-215.44962 -179.54132 640.0
-211.2907 -179.82185 641.0
-207.11777 -180.10239 642.0
-203.87761 -181.22452 646.0
-199.65558 -181.50507 647.0
-191.50607 -186.83519 666.0
-186.8352 -186.83519 666.0
-182.16434 -186.83519 666.0
-177.75996 -187.11572 667.0
-173.86052 -187.95732 670.0
-169.66656 -188.51839 672.0
-165.93547 -189.64052 676.0
-259.1567 -171.37779 596.0
-254.97675 -171.37779 596.0
-251.2176 -171.66536 597.0
-247.44443 -171.9529 598.0
-244.06401 -172.52798 600.0
-227.48448 -182.87967 636.0
-223.024 -182.87967 636.0
-218.56354 -182.87967 636.0
-214.4397 -183.1672 637.0
-210.96107 -184.02986 640.0
-207.11777 -184.60493 642.0
-203.24641 -185.18004 644.0
-199.96416 -186.33022 648.0
-198.73685 -189.49324 659.0
-194.99872 -190.35588 662.0
-190.3559 -190.35588 662.0
-185.9936 -190.64342 663.0
-182.16434 -191.50607 666.0
-177.75996 -191.79361 667.0
-173.86052 -192.65625 670.0
-169.66656 -193.23134 672.0
-259.1567 -175.55779 596.0
-254.97675 -175.55779 596.0
-251.2176 -175.85233 597.0
-247.03065 -175.85233 597.0
-244.06401 -176.73601 600.0
-239.856 -176.73601 600.0
-231.21556 -186.75105 634.0
-226.76912 -186.75105 634.0
-222.32268 -186.75105 634.0
-217.87622 -186.75105 634.0
-214.10306 -187.34018 636.0
-210.3018 -187.92929 638.0
-206.79515 -188.81297 641.0
-202.6152 -189.10753 642.0
-202.12427 -192.93681 655.0
-198.43527 -193.8205 658.0
-194.11504 -194.11505 659.0
-189.49326 -194.11505 659.0
-185.43254 -194.70418 661.0
-181.34377 -195.29329 663.0
-177.49345 -196.17697 666.0
-173.86052 -197.35521 670.0
-263.7785 -180.03928 597.0
-258.72186 -179.43614 595.0
-254.54895 -179.43614 595.0
-250.79681 -179.73772 596.0
-247.03065 -180.03928 597.0
-244.06401 -180.94402 600.0
-234.91862 -190.59436 632.0
-230.48619 -190.59436 632.0
-226.05377 -190.59436 632.0
-221.62134 -190.59436 632.0
-217.87622 -191.19751 634.0
-214.10306 -191.80064 636.0
-210.3018 -192.40381 638.0
-206.47253 -193.00694 640.0
-206.4024 -197.22896 654.0
-201.81569 -197.22896 654.0
-197.53056 -197.53055 655.0
-193.52592 -198.13368 657.0
-189.20572 -198.43526 658.0
-185.43254 -199.33998 661.0
-181.34377 -199.94313 663.0
-177.49345 -200.84785 666.0
-266.6189 -183.30048 594.0
-262.8948 -183.60907 595.0
-258.28705 -183.30048 594.0
-254.12112 -183.30048 594.0
-250.79681 -183.91766 596.0
-247.03065 -184.22624 597.0
-244.06401 -185.152 600.0
-238.97234 -194.71819 631.0
-234.1752 -194.4096 630.0
-230.1215 -194.71819 631.0
-226.05377 -195.02678 632.0
-221.62134 -195.02678 632.0
-217.18892 -195.02678 632.0
-214.10306 -196.26112 636.0
-210.3018 -196.8783 638.0
-209.37605 -200.27275 649.0
-205.77121 -201.1985 652.0
-201.19852 -201.1985 652.0
-196.62582 -201.1985 652.0
-192.93678 -202.12427 655.0
-189.20572 -203.05003 658.0
-185.43254 -203.97578 661.0
-181.34377 -204.59297 663.0
-165.93547 -208.60458 676.0
-160.95601 -208.296 675.0
-157.14778 -209.53035 679.0
-153.05899 -210.4561 682.0
-266.6189 -187.4664 594.0
-262.8948 -187.782 595.0
-258.28705 -187.4664 594.0
-254.12112 -187.4664 594.0
-250.79681 -188.0976 596.0
-247.03065 -188.4132 597.0
-243.25047 -188.7288 598.0
-242.24054 -198.1968 628.0
-237.83617 -198.1968 628.0
-233.43181 -198.1968 628.0
-229.3921 -198.5124 629.0
-225.69608 -199.1436 631.0
-221.27068 -199.1436 631.0
-217.18892 -199.4592 632.0
-214.4397 -201.0372 637.0
-212.93883 -203.8776 646.0
-208.73083 -204.1932 647.0
-204.5088 -204.5088 648.0
-200.27277 -204.8244 649.0
-196.02269 -205.14 650.0
-192.64223 -206.4024 654.0
-188.91817 -207.3492 657.0
-185.43254 -208.6116 661.0
-174.37952 -212.0832 672.0
-170.17152 -212.7144 674.0
-165.44453 -212.7144 674.0
-160.95601 -213.03 675.0
-156.91634 -213.9768 678.0
-152.61012 -214.608 680.0
-148.71072 -215.8704 684.0
-271.24066 -191.95493 595.0
-266.6189 -191.63232 594.0
-262.01114 -191.30971 593.0
-258.28705 -191.63232 594.0
-254.12112 -191.63232 594.0
-250.79681 -192.27754 596.0
-247.44443 -192.92276 598.0
-244.68118 -200.98811 623.0
-241.08334 -201.63333 625.0
-236.70001 -201.63333 625.0
-232.31668 -201.63333 625.0
-228.66272 -202.27855 627.0
-224.98073 -202.92378 629.0
-221.27068 -203.56902 631.0
-218.21988 -204.85945 635.0
-215.78625 -206.79514 641.0
-212.93883 -208.40822 646.0
-208.73083 -208.73082 647.0
-204.1932 -208.73082 647.0
-199.96416 -209.05344 648.0
-196.62582 -210.34389 652.0
-192.34767 -210.6665 653.0
-188.34308 -211.31172 655.0
-178.02647 -215.50569 668.0
-173.86052 -216.15091 670.0
-169.41408 -216.47356 671.0
-164.70815 -216.47356 671.0
-160.24065 -216.79616 672.0
-156.45345 -218.08661 676.0
-152.16127 -218.73184 678.0
-274.9507 -195.79823 594.0
-270.32895 -195.46861 593.0
-266.17004 -195.46861 593.0
-261.5693 -195.13898 592.0
-257.8522 -195.46861 593.0
-254.54895 -196.12785 595.0
-251.2176 -196.78712 597.0
-247.85823 -197.44637 599.0
-251.79271 -204.0389 619.0
-248.25096 -204.69815 621.0
-244.28844 -205.02777 622.0
-239.92615 -205.02777 622.0
-235.56386 -205.02777 622.0
-231.57327 -205.3574 623.0
-227.56863 -205.68704 624.0
-224.26537 -206.67592 627.0
-220.56934 -207.33516 629.0
-217.87622 -208.98329 634.0
-215.44962 -210.96106 640.0
-211.62032 -211.62032 642.0
-207.76299 -212.27957 644.0
-203.87761 -212.93883 646.0
-199.96416 -213.59807 648.0
-196.02269 -214.25732 650.0
-192.34767 -215.2462 653.0
-190.3559 -218.21284 662.0
-185.71307 -218.21284 662.0
-181.34377 -218.54247 663.0
-177.49345 -219.53134 666.0
-173.08205 -219.861 667.0
-168.65665 -220.19061 668.0
-164.70815 -221.17949 671.0
-160.24065 -221.50911 672.0
-155.99059 -222.16838 674.0
-274.02496 -199.29086 592.0
-269.87308 -199.29086 592.0
-265.7212 -199.29086 592.0
-261.5693 -199.29086 592.0
-258.28705 -199.96416 594.0
-255.40457 -200.97408 597.0
-251.63841 -201.3107 598.0
-247.44443 -201.3107 598.0
-251.38594 -208.0435 618.0
-247.05168 -208.0435 618.0
-243.11018 -208.38016 619.0
-239.15468 -208.71678 620.0
-234.80641 -208.71678 620.0
-231.20157 -209.39008 622.0
-227.20395 -209.7267 623.0
-223.55 -210.4 625.0
-220.21867 -211.40991 628.0
-217.18892 -212.75647 632.0
-214.10306 -214.10303 636.0
-211.2907 -215.78624 641.0
-207.11777 -216.12286 642.0
-203.87761 -217.46944 646.0
-199.96416 -218.1427 648.0
-196.02269 -218.81598 650.0
-192.93678 -220.49918 655.0
-189.49326 -221.84573 659.0
-185.43254 -222.51903 661.0
-181.07025 -222.85567 662.0
-176.42743 -222.85567 662.0
-172.82256 -224.20224 666.0
-168.40416 -224.53886 667.0
-164.70815 -225.88544 671.0
-160.24065 -226.22208 672.0
-273.56207 -203.09914 591.0
-269.4172 -203.09914 591.0
-265.7212 -203.4428 592.0
-262.01114 -203.78644 593.0
-258.72186 -204.47374 595.0
-255.40457 -205.16104 597.0
-252.0592 -205.84837 599.0
-249.92717 -207.56662 604.0
-249.35207 -210.6595 613.0
-245.45264 -211.00317 614.0
-241.53922 -211.34682 615.0
-238.38321 -212.37778 618.0
-234.80641 -213.06508 620.0
-230.82985 -213.40874 621.0
-227.20395 -214.09604 623.0
-223.55 -214.78334 625.0
-220.21867 -215.8143 628.0
-216.84528 -216.84528 631.0
-213.7664 -218.21988 635.0
-210.96107 -219.93814 640.0
-207.11777 -220.62546 642.0
-203.87761 -222.00008 646.0
-201.19852 -224.06198 652.0
-197.53056 -225.09294 655.0
-192.93678 -225.09294 655.0
-188.91817 -225.78026 657.0
-184.59094 -226.1239 658.0
-180.79674 -227.15488 661.0
-176.42743 -227.49852 662.0
-172.82256 -228.87312 666.0
-168.40416 -229.21678 667.0
-164.70815 -230.59142 671.0
-276.76718 -206.54266 589.0
-272.63632 -206.54266 589.0
-268.50546 -206.54266 589.0
-265.27234 -207.24402 591.0
-262.01114 -207.94534 593.0
-258.72186 -208.64667 595.0
-255.83238 -209.69867 598.0
-252.9008 -210.75067 601.0
-249.92717 -211.80267 604.0
-247.72498 -213.55602 609.0
-244.65312 -214.60802 612.0
-241.14645 -215.30934 614.0
-237.61174 -216.01068 616.0
-234.42769 -217.06268 619.0
-231.20157 -218.11469 622.0
-227.20395 -218.46535 623.0
-223.55 -219.16669 625.0
-220.21867 -220.21869 628.0
-216.84528 -221.27069 631.0
-213.42978 -222.32268 634.0
-210.3018 -223.72534 638.0
-207.44038 -225.47868 643.0
-204.1932 -226.88135 647.0
-200.58134 -227.93335 650.0
-196.62582 -228.63469 652.0
-192.34767 -228.98534 653.0
-188.05553 -229.336 654.0
-183.74934 -229.68669 655.0
-180.2497 -231.08934 659.0
-176.42743 -232.14134 662.0
-172.30356 -232.84268 664.0
-280.42114 -210.31584 588.0
-276.76718 -210.67352 589.0
-272.63632 -210.67352 589.0
-268.50546 -210.67352 589.0
-264.8235 -211.0312 590.0
-261.5693 -211.74657 592.0
-258.72186 -212.8196 595.0
-255.83238 -213.89265 598.0
-252.9008 -214.96568 601.0
-249.92717 -216.03873 604.0
-247.3182 -217.46944 608.0
-244.25337 -218.5425 611.0
-241.14645 -219.61552 614.0
-237.61174 -220.3309 616.0
-234.42769 -221.40393 619.0
-230.82985 -222.1193 621.0
-227.20395 -222.83464 623.0
-223.55 -223.55 625.0
-220.21867 -224.62303 628.0
-216.84528 -225.69609 631.0
-212.7565 -226.05377 632.0
-209.97218 -227.84216 637.0
-207.11777 -229.63057 642.0
-203.87761 -231.0613 646.0
-199.96416 -231.77664 648.0
-195.72112 -232.13432 649.0
-191.46399 -232.492 650.0
-187.76799 -233.56503 653.0
-183.74934 -234.2804 655.0
-180.2497 -235.71114 659.0
-176.42743 -236.78416 662.0
-279.94424 -214.07498 587.0
-275.8274 -214.07498 587.0
-272.17346 -214.43968 588.0
-268.04962 -214.43968 588.0
-264.37463 -214.80438 589.0
-261.5693 -215.89845 592.0
-258.72186 -216.99254 595.0
-255.83238 -218.08661 598.0
-252.48001 -218.816 600.0
-249.51337 -219.91006 603.0
-247.72498 -222.09824 609.0
-244.25337 -222.82762 611.0
-241.14645 -223.92172 614.0
-238.38321 -225.38046 618.0
-234.42769 -225.74518 619.0
-231.20157 -226.83925 622.0
-227.20395 -227.20395 623.0
-223.55 -227.93335 625.0
-220.21867 -229.0274 628.0
-216.5016 -229.7568 630.0
-212.7565 -230.48619 632.0
-209.64256 -231.94496 636.0
-206.47253 -233.40375 640.0
-203.24641 -234.86252 644.0
-199.65558 -235.95659 647.0
-195.41954 -236.32127 648.0
-191.46399 -237.05066 650.0
-187.76799 -238.14476 653.0
-183.74934 -238.87415 655.0
-283.0932 -217.4484 585.0
-278.51352 -217.07668 584.0
-274.8876 -217.4484 585.0
-271.24768 -217.8201 586.0
-267.59375 -218.19182 587.0
-264.37463 -218.93523 589.0
-261.5693 -220.05035 592.0
-259.1567 -221.53717 596.0
-255.83238 -222.2806 598.0
-252.9008 -223.39569 601.0
-249.92717 -224.51082 604.0
-247.72498 -226.36937 609.0
-244.65312 -227.48447 612.0
-241.14645 -228.22787 614.0
-238.38321 -229.71474 618.0
-234.80641 -230.45815 620.0
-230.82985 -230.82983 621.0
-227.20395 -231.57324 623.0
-223.55 -232.31667 625.0
-220.21867 -233.4318 628.0
-215.8143 -233.4318 628.0
-212.41985 -234.54689 631.0
-209.31294 -236.03374 635.0
-206.47253 -237.89226 640.0
-202.6152 -238.63567 642.0
-199.347 -240.1225 646.0
-195.11797 -240.49422 647.0
-191.16943 -241.23763 649.0
-187.48042 -242.35275 652.0
-286.70508 -221.17247 584.0
-282.12537 -220.79376 583.0
-278.51352 -221.17247 584.0
-274.4177 -221.17247 584.0
-270.78482 -221.5512 585.0
-267.59375 -222.30864 587.0
-264.37463 -223.06607 589.0
-261.5693 -224.20224 592.0
-259.1567 -225.7171 596.0
-255.83238 -226.47456 598.0
-252.9008 -227.6107 601.0
-250.75475 -229.5043 606.0
-247.72498 -230.64047 609.0
-244.65312 -231.77664 612.0
-241.14645 -232.53407 614.0
-238.38321 -234.04897 618.0
-234.80641 -234.8064 620.0
-231.20157 -235.56383 622.0
-227.20395 -235.94257 623.0
-223.55 -236.7 625.0
-219.86801 -237.45743 627.0
-215.8143 -237.83617 628.0
-212.0832 -238.5936 630.0
-208.9833 -240.10847 634.0
-205.5047 -241.24463 637.0
-202.6152 -243.13823 642.0
-198.72983 -243.89568 644.0
-195.11797 -245.03183 647.0
-191.16943 -245.78928 649.0
-286.70508 -225.26826 584.0
-282.12537 -224.88252 583.0
-278.03662 -224.88252 583.0
-273.9478 -224.88252 583.0
-270.32193 -225.26826 584.0
-267.13788 -226.03972 586.0
-263.92578 -226.8112 588.0
-261.5693 -228.35411 592.0
-258.72186 -229.51132 595.0
-255.83238 -230.66852 598.0
-253.32161 -232.21146 602.0
-250.75475 -233.7544 606.0
-248.13174 -235.29732 610.0
-244.65312 -236.0688 612.0
-241.14645 -236.84026 614.0
-238.38321 -238.3832 618.0
-234.42769 -238.76892 619.0
-230.82985 -239.5404 621.0
-227.20395 -240.31186 623.0
-222.83466 -240.31186 623.0
-219.16667 -241.08331 625.0
-215.8143 -242.24051 628.0
-212.0832 -243.012 630.0
-208.9833 -244.55492 634.0
-205.5047 -245.71211 637.0
-201.98401 -246.86932 640.0
-198.11266 -247.6408 642.0
-195.11797 -249.56946 647.0
-319.6958 -232.50603 592.0
-291.2988 -229.75677 585.0
-286.21414 -228.9713 583.0
-281.64145 -228.57854 582.0
-277.5597 -228.57854 582.0
-273.9478 -228.9713 583.0
-270.32193 -229.36404 584.0
-266.682 -229.75677 585.0
-263.47693 -230.54228 587.0
-261.5693 -232.50603 592.0
-258.28705 -233.2915 594.0
-256.2602 -235.25525 599.0
-253.74242 -236.82623 603.0
-250.75475 -238.00447 606.0
-248.13174 -239.57545 610.0
-245.45264 -241.14645 614.0
-241.53922 -241.53917 615.0
-238.38321 -242.71744 618.0
-234.42769 -243.11017 619.0
-230.82985 -243.89568 621.0
-227.20395 -244.68115 623.0
-223.19232 -245.0739 624.0
-219.16667 -245.46666 625.0
-215.8143 -246.6449 628.0
-212.0832 -247.43037 630.0
-208.32405 -248.21588 632.0
-205.18208 -249.78687 636.0
-201.35281 -250.57236 638.0
-197.80408 -251.75058 641.0
-169.18965 -256.07083 652.0
-164.86945 -256.46356 653.0
-160.28973 -256.46356 653.0
-156.18694 -257.24905 655.0
-152.05609 -258.03455 657.0
-318.3773 -232.66032 582.0
-317.5357 -235.0589 588.0
-316.0769 -237.0577 593.0
-312.97 -237.8572 595.0
-295.90656 -234.25937 586.0
-290.80084 -233.45985 584.0
-286.21414 -233.06009 583.0
-281.15753 -232.26056 581.0
-277.0828 -232.26056 581.0
-273.9478 -233.06009 583.0
-270.32193 -233.45985 584.0
-266.682 -233.8596 585.0
-264.37463 -235.45866 589.0
-261.5693 -236.65793 592.0
-259.1567 -238.25696 596.0
-256.68802 -239.856 600.0
-254.16321 -241.45506 604.0
-251.5823 -243.0541 608.0
-248.13174 -243.8536 610.0
-245.45264 -245.45267 614.0
-241.14645 -245.45267 614.0
-238.38321 -247.0517 618.0
-234.42769 -247.45146 619.0
-230.45815 -247.8512 620.0
-226.83925 -248.65073 622.0
-222.83466 -249.05049 623.0
-219.16667 -249.85 625.0
-215.47066 -250.64954 627.0
-211.40994 -251.0493 628.0
-207.66481 -251.8488 630.0
-204.85947 -253.8476 635.0
-201.35281 -255.04689 638.0
-197.49547 -255.8464 640.0
-181.22453 -258.24496 646.0
-176.96745 -258.64474 647.0
-172.96284 -259.44427 649.0
-168.41116 -259.44427 649.0
-164.61696 -260.64352 652.0
-160.04427 -260.64352 652.0
-155.71002 -261.0433 653.0
-151.59322 -261.84283 655.0
-147.67274 -263.04208 658.0
-316.18912 -235.11499 578.0
-313.7555 -236.33531 581.0
-312.8788 -238.77596 587.0
-311.392 -240.80981 592.0
-307.24014 -240.80981 592.0
-302.57626 -240.40306 591.0
-295.4016 -237.9624 585.0
-290.30292 -237.14888 583.0
-285.23227 -236.33531 581.0
-281.15753 -236.33531 581.0
-277.0828 -236.33531 581.0
-273.47794 -236.7421 582.0
-269.85904 -237.14888 583.0
-266.682 -237.9624 585.0
-263.92578 -239.18272 588.0
-261.5693 -240.80981 592.0
-259.59152 -242.84369 597.0
-257.1158 -244.47078 601.0
-255.0048 -246.50465 606.0
-251.9961 -247.72496 609.0
-248.13174 -248.13174 610.0
-245.45264 -249.75882 614.0
-241.14645 -249.75882 614.0
-237.61174 -250.57237 616.0
-234.42769 -251.79271 619.0
-230.08646 -251.79271 619.0
-226.47456 -252.60626 621.0
-222.83466 -253.41978 623.0
-218.81601 -253.82657 624.0
-214.78334 -254.23334 625.0
-211.40994 -255.45367 628.0
-207.66481 -256.2672 630.0
-204.53685 -257.89432 634.0
-201.0372 -259.11462 637.0
-196.8783 -259.5214 638.0
-193.00694 -260.33493 640.0
-188.81296 -260.74173 641.0
-184.60497 -261.1485 642.0
-180.38293 -261.55527 643.0
-176.1469 -261.96204 644.0
-172.16331 -262.77557 646.0
-167.89218 -263.18234 647.0
-163.85951 -263.9959 649.0
-159.55334 -264.40268 650.0
-155.47159 -265.21622 652.0
-151.13034 -265.623 653.0
-147.44832 -267.2501 657.0
-312.35986 -236.27219 571.0
-311.5954 -238.75491 577.0
-311.2798 -241.65141 584.0
-309.28802 -243.30656 588.0
-304.6452 -242.89278 587.0
-300.01642 -242.47899 586.0
-295.4016 -242.0652 585.0
-289.80496 -240.82384 582.0
-285.23227 -240.41005 581.0
-280.6736 -239.99626 580.0
-277.0828 -240.41005 581.0
-273.47794 -240.82384 582.0
-270.32193 -241.65141 584.0
-267.13788 -242.47899 586.0
-263.92578 -243.30656 588.0
-262.01114 -245.3755 593.0
-259.59152 -247.03064 597.0
-257.1158 -248.68579 601.0
-255.8464 -251.5823 608.0
-251.9961 -251.9961 609.0
-248.9453 -253.23744 612.0
-245.45264 -254.06502 614.0
-241.14645 -254.06502 614.0
-237.22601 -254.4788 615.0
-234.04897 -255.72017 618.0
-230.08646 -256.13394 619.0
-226.10988 -256.54773 620.0
-222.47696 -257.3753 622.0
-218.46535 -257.7891 623.0
-214.09602 -257.7891 623.0
-211.07329 -259.44424 627.0
-207.33517 -260.27182 629.0
-203.89163 -261.51318 632.0
-200.7216 -263.16833 636.0
-196.56972 -263.58212 637.0
-192.40381 -263.9959 638.0
-188.81296 -265.23724 641.0
-184.60497 -265.65103 642.0
-180.1024 -265.65103 642.0
-175.87337 -266.06482 643.0
-172.16331 -267.30618 646.0
-167.89218 -267.71997 647.0
-163.60706 -268.13376 648.0
-159.55334 -268.96133 650.0
-155.47159 -269.7889 652.0
-150.8989 -269.7889 652.0

