ply
format ascii 1.0
comment made by @arthurmuchir
element vertex 656
property float x
property float y
property float z
end_header
-204.27736 -114.68202 511.0
-221.73357 -114.33135 494.0
-213.47885 -115.488556 499.0
-210.8208 -115.95143 501.0
-207.72092 -116.18287 502.0
-205.42055 -116.87719 505.0
-203.07808 -117.5715 508.0
-199.51532 -117.5715 508.0
-197.10974 -118.26584 511.0
-193.52594 -118.26584 511.0
-230.82285 -115.41142 484.0
-227.89827 -115.64989 485.0
-225.42256 -116.12679 487.0
-222.91881 -116.6037 489.0
-219.93814 -116.84214 490.0
-217.3853 -117.319046 492.0
-215.67403 -118.27286 496.0
-213.05106 -118.74978 498.0
-209.9792 -118.98823 499.0
-207.30714 -119.46513 501.0
-204.60701 -119.94204 503.0
-201.87881 -120.418945 505.0
-199.51532 -121.13431 508.0
-196.33827 -121.37276 509.0
-193.52594 -121.84966 511.0
-189.94212 -121.84966 511.0
-187.08768 -122.32658 513.0
-233.24945 -118.31494 482.0
-229.86903 -118.31494 482.0
-226.95848 -118.56041 483.0
-224.03392 -118.80587 484.0
-222.00708 -119.542274 487.0
-219.48929 -120.03321 489.0
-216.94345 -120.52414 491.0
-214.80437 -121.260544 494.0
-212.1954 -121.75147 496.0
-209.55841 -122.24242 498.0
-206.47957 -122.48787 499.0
-204.20023 -123.22427 502.0
-201.47903 -123.71521 504.0
-199.12256 -124.451614 507.0
-195.95255 -124.69707 508.0
-193.52594 -125.43347 511.0
-191.05725 -126.16987 514.0
-187.45236 -126.16987 514.0
-232.2816 -121.1904 480.0
-229.39212 -121.44289 481.0
-226.48859 -121.695366 482.0
-223.57104 -121.947845 483.0
-221.09534 -122.4528 485.0
-218.59158 -122.95776 487.0
-216.5016 -123.7152 490.0
-214.36954 -124.47265 493.0
-211.76761 -124.9776 495.0
-208.71681 -125.23008 496.0
-206.47957 -125.98753 499.0
-204.20023 -126.744965 502.0
-201.47903 -127.24993 504.0
-199.12256 -128.00737 507.0
-196.33827 -128.51233 509.0
-194.28337 -129.52225 513.0
-191.05725 -129.77473 514.0
-188.54645 -130.53217 517.0
-226.01869 -124.81629 481.0
-223.10817 -125.07579 482.0
-220.63948 -125.59478 484.0
-218.59158 -126.37326 487.0
-216.5016 -127.151726 490.0
-214.36954 -127.930214 493.0
-211.33978 -128.18971 494.0
-208.71681 -128.7087 496.0
-206.89334 -129.74667 500.0
-204.20023 -130.26566 502.0
-201.87881 -131.04413 505.0
-199.90805 -132.0821 509.0
-197.10974 -132.60109 511.0
-193.1472 -132.3416 510.0
-189.94212 -132.60109 511.0
-187.08768 -133.12009 513.0
-184.92056 -134.15807 517.0
-177.66878 -134.15807 517.0
-226.48859 -128.4562 482.0
-223.10817 -128.4562 482.0
-220.63948 -128.98923 484.0
-219.04044 -130.05525 488.0
-216.5016 -130.58827 490.0
-214.36954 -131.38779 493.0
-212.62323 -132.45381 497.0
-209.9792 -132.98682 499.0
-207.72092 -133.78635 502.0
-202.16637 -132.45381 497.0
-198.68073 -132.45381 497.0
-200.30081 -135.9184 510.0
-194.79533 -134.58588 505.0
-192.38977 -135.38539 508.0
-189.5704 -135.9184 510.0
-187.08768 -136.71791 513.0
-183.84752 -136.98442 514.0
-180.59334 -137.25093 515.0
-177.66878 -137.78394 517.0
-223.10817 -131.83664 482.0
-222.00708 -133.20424 487.0
-219.93814 -134.0248 490.0
-216.94345 -134.29832 491.0
-213.93472 -134.57184 492.0
-213.47885 -136.48647 499.0
-209.9792 -136.48647 499.0
-208.5485 -137.85406 504.0
-202.97992 -136.48647 499.0
-199.48024 -136.48647 499.0
-197.94432 -137.85406 504.0
-194.4096 -137.85406 504.0
-192.01105 -138.67464 507.0
-189.5704 -139.4952 510.0
-186.72299 -140.04224 512.0
-183.84752 -140.58926 514.0
-180.24268 -140.58926 514.0
-222.91881 -137.18079 489.0
-220.38701 -137.74185 491.0
-216.94345 -137.74185 491.0
-214.36954 -138.30293 493.0
-213.05106 -139.70558 498.0
-210.40001 -140.26666 500.0
-205.2382 -139.14453 496.0
-203.38667 -140.26666 500.0
-200.67952 -140.82773 502.0
-197.94432 -141.3888 504.0
-194.4096 -141.3888 504.0
-192.01105 -142.2304 507.0
-189.5704 -143.07199 510.0
-186.72299 -143.63306 512.0
-183.84752 -144.19412 514.0
-180.24268 -144.19412 514.0
-240.62747 -135.14691 470.0
-237.3312 -135.14691 470.0
-234.53288 -135.43446 471.0
-225.42256 -140.03522 487.0
-223.37468 -140.89786 490.0
-220.38701 -141.1854 491.0
-217.82713 -141.7605 493.0
-215.23921 -142.33559 495.0
-212.62323 -142.91068 497.0
-209.9792 -143.48578 499.0
-206.89334 -143.77332 500.0
-204.20023 -144.3484 502.0
-201.07928 -144.63597 503.0
-197.94432 -144.92351 504.0
-195.18108 -145.4986 506.0
-192.38977 -146.0737 508.0
-189.94212 -146.93634 511.0
-187.45236 -147.79898 514.0
-183.84752 -147.79898 514.0
-180.944 -148.37407 516.0
-242.36679 -137.55952 467.0
-240.11551 -138.14865 469.0
-237.3312 -138.4432 470.0
-234.03494 -138.4432 470.0
-231.72054 -139.03233 472.0
-230.82285 -142.56705 484.0
-227.89827 -142.86162 485.0
-225.42256 -143.45073 487.0
-222.91881 -144.03984 489.0
-220.38701 -144.62897 491.0
-218.26898 -145.51265 494.0
-215.23921 -145.80722 495.0
-212.1954 -146.10176 496.0
-209.9792 -146.98544 499.0
-206.89334 -147.28001 500.0
-204.20023 -147.86913 502.0
-201.47903 -148.45825 504.0
-199.12256 -149.34193 507.0
-195.95255 -149.63649 508.0
-193.52594 -150.52017 511.0
-190.68553 -151.1093 513.0
-187.45236 -151.40385 514.0
-184.56288 -151.99297 516.0
-181.29468 -152.28754 517.0
-177.66878 -152.28754 517.0
-239.09157 -140.83475 467.0
-236.32127 -141.13634 468.0
-234.03494 -141.73947 470.0
-232.21147 -142.6442 473.0
-230.82985 -143.85048 477.0
-229.86903 -145.35835 482.0
-227.42838 -145.96149 484.0
-224.95967 -146.56465 486.0
-222.91881 -147.46936 489.0
-220.38701 -148.07253 491.0
-217.3853 -148.37408 492.0
-214.80437 -148.97723 494.0
-212.1954 -149.58038 496.0
-209.55841 -150.18353 498.0
-206.47957 -150.48509 499.0
-204.20023 -151.38983 502.0
-201.47903 -151.99297 504.0
-199.12256 -152.89769 507.0
-196.33827 -153.50084 509.0
-193.52594 -154.10397 511.0
-189.5704 -153.80241 510.0
-186.35829 -154.10397 511.0
-184.56288 -155.61185 516.0
-181.29468 -155.91342 517.0
-178.01244 -156.21498 518.0
-241.32881 -143.4928 465.0
-238.57959 -143.80139 466.0
-236.82623 -144.72716 469.0
-234.53288 -145.34431 471.0
-233.19334 -146.57867 475.0
-231.31377 -147.50444 478.0
-229.39212 -148.43019 481.0
-226.95848 -149.04736 483.0
-224.03392 -149.35596 484.0
-222.00708 -150.28171 487.0
-219.93814 -151.20747 490.0
-216.94345 -151.51605 491.0
-214.36954 -152.13324 493.0
-212.1954 -153.05899 496.0
-209.1376 -153.36758 497.0
-206.47957 -153.98476 499.0
-204.20023 -154.9105 502.0
-201.47903 -155.52768 504.0
-198.33707 -155.83627 505.0
-195.5668 -156.45345 507.0
-191.63234 -156.14487 506.0
-188.45529 -156.45345 507.0
-185.2642 -156.76204 508.0
-182.77448 -157.68779 511.0
-179.19067 -157.68779 511.0
-176.63783 -158.61356 514.0
-241.84781 -147.0696 466.0
-239.09157 -147.3852 467.0
-237.3312 -148.332 470.0
-235.03084 -148.9632 472.0
-234.1752 -150.5412 477.0
-231.7977 -151.1724 479.0
-229.86903 -152.1192 482.0
-226.95848 -152.4348 483.0
-224.49681 -153.066 485.0
-222.00708 -153.6972 487.0
-219.48929 -154.3284 489.0
-216.94345 -154.9596 491.0
-214.36954 -155.5908 493.0
-212.1954 -156.5376 496.0
-209.1376 -156.8532 497.0
-206.47957 -157.4844 499.0
-203.38667 -157.8 500.0
-201.07928 -158.7468 503.0
-197.94432 -159.0624 504.0
-194.79533 -159.378 505.0
-190.8749 -159.0624 504.0
-187.71187 -159.378 505.0
-185.2642 -160.3248 508.0
-182.77448 -161.2716 511.0
-179.19067 -161.2716 511.0
-176.29416 -161.9028 513.0
-173.36961 -162.534 515.0
-171.07623 -163.7964 519.0
-248.41228 -148.40213 460.0
-246.25217 -149.04735 462.0
-243.53801 -149.36996 463.0
-241.84781 -150.33781 466.0
-239.60355 -150.98303 468.0
-238.34113 -152.2735 472.0
-235.52878 -152.5961 473.0
-233.68428 -153.56393 476.0
-231.7977 -154.53178 479.0
-229.39212 -155.17702 481.0
-226.48859 -155.49962 482.0
-224.03392 -156.14485 484.0
-222.00708 -157.1127 487.0
-219.48929 -157.75792 489.0
-216.94345 -158.40314 491.0
-214.36954 -159.04837 493.0
-211.33978 -159.37099 494.0
-208.71681 -160.0162 496.0
-206.47957 -160.98404 499.0
-203.38667 -161.30666 500.0
-200.27977 -161.62929 501.0
-197.15883 -161.95189 502.0
-194.4096 -162.59712 504.0
-191.2536 -162.91972 505.0
-188.08359 -163.24234 506.0
-185.2642 -163.88756 508.0
-182.77448 -164.85541 511.0
-179.54134 -165.17802 512.0
-176.63783 -165.82324 514.0
-173.03297 -165.82324 514.0
-250.54434 -150.96901 458.0
-248.41228 -151.62827 460.0
-246.25217 -152.28752 462.0
-243.53801 -152.61714 463.0
-241.32881 -153.2764 465.0
-239.60355 -154.26527 468.0
-237.83617 -155.25415 471.0
-235.52878 -155.9134 473.0
-233.68428 -156.90228 476.0
-231.31377 -157.56154 478.0
-228.9152 -158.2208 480.0
-226.48859 -158.88005 482.0
-223.57104 -159.20967 483.0
-222.00708 -160.52818 487.0
-219.48929 -161.18744 489.0
-216.5016 -161.51706 490.0
-213.93472 -162.17632 492.0
-211.33978 -162.83557 494.0
-208.296 -163.16519 495.0
-205.65198 -163.82445 497.0
-202.97992 -164.4837 499.0
-199.88 -164.81332 500.0
-197.15883 -165.47258 502.0
-194.4096 -166.13184 504.0
-191.2536 -166.46146 505.0
-188.45529 -167.12071 507.0
-185.9936 -168.10959 510.0
-182.77448 -168.43922 511.0
-180.24268 -169.4281 514.0
-176.63783 -169.4281 514.0
-249.9973 -153.84447 457.0
-247.87224 -154.51775 459.0
-246.25217 -155.52766 462.0
-243.53801 -155.8643 463.0
-241.32881 -156.53758 465.0
-239.60355 -157.5475 468.0
-237.3312 -158.2208 470.0
-235.52878 -159.2307 473.0
-233.68428 -160.24063 476.0
-231.31377 -160.91391 478.0
-228.9152 -161.58719 480.0
-226.48859 -162.26047 482.0
-223.10817 -162.26047 482.0
-221.09534 -163.27039 485.0
-219.04044 -164.2803 488.0
-216.05978 -164.61696 489.0
-213.4999 -165.29024 491.0
-210.91199 -165.9635 493.0
-207.87521 -166.30016 494.0
-205.2382 -166.97343 496.0
-202.57314 -167.6467 498.0
-199.88 -168.31999 500.0
-197.15883 -168.99327 502.0
-194.4096 -169.66655 504.0
-191.63234 -170.33983 506.0
-188.82701 -171.0131 508.0
-186.35829 -172.02304 511.0
-183.84752 -173.03296 514.0
-180.24268 -173.03296 514.0
-248.35619 -156.01863 454.0
-247.33221 -157.39323 458.0
-245.18614 -158.08054 460.0
-243.53801 -159.11151 463.0
-241.32881 -159.79881 465.0
-239.60355 -160.82976 468.0
-237.3312 -161.51709 470.0
-236.02672 -162.8917 474.0
-234.1752 -163.92265 477.0
-231.7977 -164.60995 479.0
-229.86903 -165.64091 482.0
-226.95848 -165.98456 483.0
-223.10817 -165.64091 482.0
-220.63948 -166.32823 484.0
-218.59158 -167.35919 487.0
-215.61794 -167.70284 488.0
-213.06508 -168.39014 490.0
-210.48416 -169.07745 492.0
-207.87521 -169.76476 494.0
-205.2382 -170.45206 496.0
-202.57314 -171.13937 498.0
-199.88 -171.82669 500.0
-197.15883 -172.51399 502.0
-194.4096 -173.2013 504.0
-191.63234 -173.8886 506.0
-189.19872 -174.91956 509.0
-186.72299 -175.95052 512.0
-248.35619 -159.20267 454.0
-246.25217 -159.904 456.0
-244.65312 -160.95601 459.0
-243.53801 -162.35867 463.0
-241.32881 -163.06001 465.0
-239.60355 -164.11201 468.0
-237.3312 -164.81334 470.0
-236.02672 -166.21602 474.0
-234.66614 -167.61867 478.0
-233.24945 -169.02135 482.0
-230.34593 -169.37201 483.0
-228.83806 -170.77467 487.0
-225.42256 -170.77467 487.0
-220.63948 -169.72267 484.0
-218.59158 -170.77467 487.0
-215.61794 -171.12534 488.0
-213.06508 -171.82668 490.0
-210.48416 -172.52802 492.0
-207.87521 -173.22934 494.0
-205.2382 -173.93066 496.0
-202.97992 -174.98267 499.0
-199.88 -175.33334 500.0
-197.15883 -176.03467 502.0
-194.02388 -176.38535 503.0
-190.8749 -176.73601 504.0
-188.82701 -178.13867 508.0
-185.2642 -178.13867 508.0
-172.02306 -179.19067 511.0
-168.76886 -179.54134 512.0
-248.35619 -162.38673 454.0
-246.79219 -163.45976 457.0
-245.18614 -164.5328 460.0
-243.53801 -165.60585 463.0
-241.84781 -166.67888 466.0
-239.60355 -167.39424 468.0
-238.34113 -168.82497 472.0
-237.02261 -170.25568 476.0
-234.66614 -170.97105 478.0
-233.24945 -172.40176 482.0
-230.34593 -172.75945 483.0
-228.83806 -174.19017 487.0
-225.42256 -174.19017 487.0
-220.63948 -173.11713 484.0
-218.59158 -174.19017 487.0
-216.05978 -174.90553 489.0
-213.4999 -175.62088 491.0
-210.48416 -175.97856 492.0
-207.87521 -176.69392 494.0
-205.2382 -177.40929 496.0
-202.16637 -177.76697 497.0
-199.48024 -178.48233 499.0
-196.37334 -178.84 500.0
-193.63814 -179.55536 502.0
-190.11745 -179.55536 502.0
-188.45529 -181.34377 507.0
-184.53484 -180.98608 506.0
-180.98607 -180.98608 506.0
-178.48933 -182.05913 509.0
-174.5759 -181.70145 508.0
-171.6864 -182.4168 510.0
-248.90321 -165.93547 455.0
-246.79219 -166.66486 457.0
-245.18614 -167.75893 460.0
-243.53801 -168.85301 463.0
-241.84781 -169.9471 466.0
-240.11551 -171.04118 469.0
-238.34113 -172.13525 472.0
-237.02261 -173.59402 476.0
-234.66614 -174.32341 478.0
-233.24945 -175.7822 482.0
-230.82285 -176.51158 484.0
-228.36816 -177.24097 486.0
-225.42256 -177.60567 487.0
-222.00708 -177.60567 487.0
-219.04044 -177.97035 488.0
-216.5016 -178.69972 490.0
-213.93472 -179.42912 492.0
-210.91199 -179.79381 493.0
-207.4544 -179.79381 493.0
-204.41063 -180.15851 494.0
-201.75958 -180.8879 496.0
-198.68073 -181.2526 497.0
-195.98059 -181.98198 499.0
-193.25241 -182.71136 501.0
-190.11745 -183.07607 502.0
-187.34018 -183.80545 504.0
-184.17014 -184.17014 505.0
-180.6284 -184.17014 505.0
-177.78801 -184.89952 507.0
-174.23225 -184.89952 507.0
-171.01314 -185.2642 508.0
-248.35619 -168.75482 454.0
-246.79219 -169.86993 457.0
-246.25217 -171.72849 462.0
-244.06401 -172.4719 464.0
-242.36679 -173.587 467.0
-240.62747 -174.70213 470.0
-238.34113 -175.44554 472.0
-236.52467 -176.56067 475.0
-235.15707 -178.0475 479.0
-233.24945 -179.16261 482.0
-230.82285 -179.90602 484.0
-227.42838 -179.90602 484.0
-224.49681 -180.27773 485.0
-222.00708 -181.02113 487.0
-219.04044 -181.39285 488.0
-216.05978 -181.76456 489.0
-213.06508 -182.13628 490.0
-210.05635 -182.50798 491.0
-206.61281 -182.50798 491.0
-203.99683 -183.25139 493.0
-200.94604 -183.6231 494.0
-198.28096 -184.3665 496.0
-195.58784 -185.10992 498.0
-192.86667 -185.85333 500.0
-190.11745 -186.59674 502.0
-186.59676 -186.59674 502.0
-183.80544 -187.34015 504.0
-180.98607 -188.08357 506.0
-177.78801 -188.45528 507.0
-174.23225 -188.45528 507.0
-171.01314 -188.827 508.0
-248.35619 -171.93887 454.0
-246.25217 -172.69632 456.0
-246.78519 -175.34735 463.0
-244.59001 -176.1048 465.0
-242.36679 -176.86223 467.0
-240.62747 -177.9984 470.0
-238.34113 -178.75583 472.0
-237.02261 -180.27072 476.0
-234.66614 -181.02815 478.0
-232.2816 -181.7856 480.0
-229.86903 -182.54303 482.0
-227.42838 -183.30048 484.0
-224.03392 -183.30048 484.0
-222.00708 -184.43663 487.0
-218.59158 -184.43663 487.0
-215.1761 -184.43663 487.0
-212.63023 -185.19408 489.0
-209.20071 -185.19408 489.0
-206.192 -185.5728 490.0
-203.16927 -185.95152 491.0
-200.94604 -187.08768 494.0
-197.48143 -187.08768 494.0
-194.80234 -187.84512 496.0
-192.0952 -188.60255 498.0
-189.73874 -189.73872 501.0
-186.59676 -190.11743 502.0
-183.44075 -190.49615 503.0
-180.98607 -191.63232 506.0
-177.78801 -192.01103 507.0
-174.23225 -192.01103 507.0
-248.35619 -175.12292 454.0
-246.79219 -176.28014 457.0
-246.25217 -178.20879 462.0
-244.06401 -178.98026 464.0
-242.88577 -180.5232 468.0
-240.62747 -181.29466 470.0
-238.34113 -182.06613 472.0
-237.02261 -183.60905 476.0
-235.15707 -184.76627 479.0
-232.2816 -185.152 480.0
-229.39212 -185.53773 481.0
-227.42838 -186.69493 484.0
-223.10817 -185.92346 482.0
-220.18361 -186.30919 483.0
-217.24503 -186.69493 484.0
-213.85059 -186.69493 484.0
-211.32576 -187.46638 486.0
-208.3451 -187.85213 487.0
-205.77121 -188.62358 489.0
-202.75548 -189.00932 490.0
-200.13249 -189.78079 492.0
-197.48143 -190.55226 494.0
-194.80234 -191.32373 496.0
-191.70947 -191.70946 497.0
-189.36 -192.86665 500.0
-186.96848 -194.02386 503.0
-183.80544 -194.40959 504.0
-180.6284 -194.79533 505.0
-177.78801 -195.56679 507.0
-248.90321 -178.69972 455.0
-248.41228 -180.66345 460.0
-246.25217 -181.44896 462.0
-244.59001 -182.62718 465.0
-242.88577 -183.80544 468.0
-240.11551 -184.19818 469.0
-238.34113 -185.3764 472.0
-237.02261 -186.9474 476.0
-234.66614 -187.7329 478.0
-231.7977 -188.12564 479.0
-227.4845 -187.34015 477.0
-225.54881 -188.51839 480.0
-221.71953 -188.12564 479.0
-218.81601 -188.51839 480.0
-216.34732 -189.30388 482.0
-213.40874 -189.69664 483.0
-210.4561 -190.08937 484.0
-207.91728 -190.87486 486.0
-205.3504 -191.66037 488.0
-202.75548 -192.44586 490.0
-199.72572 -192.8386 491.0
-197.48143 -194.01685 494.0
-194.80234 -194.80234 496.0
-192.0952 -195.58783 498.0
-189.36 -196.37332 500.0
-187.34018 -197.9443 504.0
-184.17014 -198.33705 505.0
-249.9973 -182.69032 457.0
-247.87224 -183.48985 459.0
-246.25217 -184.68913 462.0
-244.59001 -185.88841 465.0
-242.88577 -187.08769 468.0
-240.11551 -187.48744 469.0
-238.34113 -188.68674 472.0
-236.02672 -189.48625 474.0
-233.19334 -189.88602 475.0
-230.34593 -190.28577 476.0
-227.00758 -190.28577 476.0
-224.13911 -190.68553 477.0
-221.25665 -191.0853 478.0
-218.36014 -191.48505 479.0
-215.89847 -192.28456 481.0
-212.96689 -192.68433 482.0
-210.4561 -193.48384 484.0
-207.91728 -194.28337 486.0
-204.92961 -194.68314 487.0
-202.75548 -195.88242 490.0
-199.72572 -196.28217 491.0
-197.48143 -197.48145 494.0
-195.1951 -198.68073 497.0
-192.48094 -199.48026 499.0
-190.11745 -200.67953 502.0
-187.34018 -201.47905 504.0
-248.90321 -185.08188 455.0
-247.87224 -186.70897 459.0
-246.25217 -187.92928 462.0
-243.53801 -188.33606 463.0
-242.36679 -189.96315 467.0
-239.60355 -190.36993 468.0
-237.83617 -191.59024 471.0
-235.03084 -191.99702 472.0
-231.72054 -191.99702 472.0
-229.3781 -192.81056 474.0
-226.53067 -193.21735 475.0
-223.66924 -193.62411 476.0
-220.79376 -194.03088 477.0
-217.90428 -194.43765 478.0
-215.44962 -195.2512 480.0
-212.96689 -196.06476 482.0
-210.4561 -196.8783 484.0
-207.91728 -197.69185 486.0
-204.92961 -198.09862 487.0
-203.16927 -199.72572 491.0
-200.13249 -200.13248 492.0
-197.48143 -200.94603 494.0
-195.58784 -202.57314 498.0
-192.86667 -203.38667 500.0
-190.11745 -204.20023 502.0
-248.35619 -187.85915 454.0
-247.33221 -189.5143 458.0
-245.71915 -190.75566 461.0
-243.01201 -191.16945 462.0
-241.32881 -192.4108 465.0
-239.09157 -193.23837 467.0
-236.32127 -193.65216 468.0
-234.03494 -194.47974 470.0
-231.22961 -194.89352 471.0
-228.41025 -195.30731 472.0
-225.57687 -195.7211 473.0
-222.72943 -196.13489 474.0
-220.33087 -196.96246 476.0
-217.90428 -197.79004 478.0
-215.44962 -198.6176 480.0
-212.52505 -199.03139 481.0
-210.4561 -200.27275 484.0
-207.91728 -201.10031 486.0
-204.92961 -201.5141 487.0
-203.16927 -203.16927 491.0
-200.53928 -203.99684 493.0
-197.88121 -204.8244 495.0
-195.58784 -206.06577 498.0
-192.86667 -206.89334 500.0

