ply
format ascii 1.0
comment made by @arthurmuchir
element vertex 954
property float x
property float y
property float z
end_header
-80.35177 -105.72599 603.0
-76.24897 -105.90132 604.0
-88.368004 -109.40799 600.0
-84.16 -109.40799 600.0
-80.08526 -109.590324 601.0
-76.122734 -109.955025 603.0
-72.37058 -110.68441 607.0
-92.11311 -113.04793 597.0
-88.07344 -113.2373 598.0
-84.01974 -113.42665 599.0
-79.952 -113.61601 600.0
-75.99649 -113.99473 602.0
-72.0129 -114.37345 604.0
-100.655365 -117.43126 598.0
-96.13879 -117.03852 596.0
-91.95882 -117.03852 596.0
-87.778885 -117.03852 596.0
-83.739204 -117.234886 597.0
-79.818756 -117.62764 599.0
-75.870255 -118.02038 601.0
-71.89367 -118.41313 603.0
-99.81377 -120.60829 593.0
-95.81617 -120.81168 594.0
-91.80453 -121.01507 595.0
-87.6316 -121.01507 595.0
-83.59894 -121.21846 596.0
-79.818756 -121.82861 599.0
-76.122734 -122.642166 603.0
-107.766884 -124.3464 591.0
-103.622 -124.3464 591.0
-99.47713 -124.3464 591.0
-95.49356 -124.5568 592.0
-91.49594 -124.7672 593.0
-87.484314 -124.9776 594.0
-83.45867 -125.188 595.0
-111.533035 -128.05644 589.0
-107.40218 -128.05644 589.0
-103.27134 -128.05644 589.0
-99.30881 -128.27386 590.0
-95.33225 -128.49127 591.0
-91.49594 -128.9261 593.0
-87.337036 -128.9261 593.0
-119.38798 -131.73845 587.0
-115.46754 -131.96288 588.0
-111.34367 -131.96288 588.0
-107.21984 -131.96288 588.0
-103.27134 -132.18729 589.0
-99.14049 -132.18729 589.0
-95.49356 -132.86058 592.0
-91.49594 -133.085 593.0
-119.18459 -135.62383 586.0
-115.27116 -135.85527 587.0
-111.15432 -135.85527 587.0
-107.03749 -135.85527 587.0
-103.096 -136.0867 588.0
-99.30881 -136.54959 590.0
-95.49356 -137.01247 592.0
-83.01684 -144.1871 623.0
-78.773766 -144.41855 624.0
-74.87434 -145.3443 628.0
-70.80661 -146.03862 631.0
-146.61374 -134.72614 565.0
-142.14624 -134.24924 563.0
-137.95227 -134.01079 562.0
-132.58006 -132.58008 556.0
-128.9121 -132.81851 557.0
-125.454506 -133.29543 559.0
-122.186295 -134.01079 562.0
-118.45521 -134.24924 563.0
-118.777824 -139.25676 584.0
-114.68204 -139.25676 584.0
-110.7756 -139.49521 585.0
-106.85515 -139.73367 586.0
-103.27134 -140.44902 589.0
-99.30881 -140.68748 590.0
-90.42992 -146.41037 614.0
-86.68481 -147.36418 618.0
-82.61707 -147.84108 620.0
-78.521286 -148.318 622.0
-74.51666 -149.03334 625.0
-160.46507 -140.40694 572.0
-155.63289 -139.67055 569.0
-151.37581 -139.42506 568.0
-146.35423 -138.4432 564.0
-141.64128 -137.70682 561.0
-136.9704 -136.97041 558.0
-131.62625 -135.49762 552.0
-127.06057 -134.76122 549.0
-125.23007 -136.97041 558.0
-121.96888 -137.70682 561.0
-118.0344 -137.70682 561.0
-118.37105 -142.86162 582.0
-114.485664 -143.10707 583.0
-110.58624 -143.35254 584.0
-106.85515 -143.84348 586.0
-103.096 -144.33441 588.0
-94.42751 -150.22562 612.0
-90.28264 -150.47107 613.0
-86.264 -150.962 615.0
-82.35057 -151.69841 618.0
-78.268814 -152.18935 620.0
-74.15898 -152.68027 622.0
-173.10312 -144.92352 574.0
-168.19376 -144.16608 571.0
-163.32652 -143.40865 568.0
-159.34294 -143.40865 568.0
-155.35936 -143.40865 568.0
-150.57628 -142.6512 565.0
-145.83525 -141.89377 562.0
-141.13632 -141.13634 559.0
-136.9704 -140.88385 558.0
-128.7648 -136.3392 540.0
-125.903366 -137.34914 544.0
-122.76138 -138.10657 547.0
-121.96888 -141.64128 561.0
-117.824005 -141.3888 560.0
-118.167656 -146.69089 581.0
-114.485664 -147.19585 583.0
-110.58624 -147.44833 584.0
-106.672806 -147.7008 585.0
-106.25201 -153.00288 606.0
-102.50689 -153.76033 609.0
-98.23577 -153.76033 609.0
-94.11893 -154.0128 610.0
-90.13536 -154.51776 612.0
-85.98347 -154.77025 613.0
-82.08406 -155.52768 616.0
-78.016335 -156.03265 618.0
-172.49995 -148.43019 572.0
-162.59712 -143.24031 552.0
-158.4382 -142.98082 551.0
-154.57387 -142.98082 551.0
-155.35936 -147.39221 568.0
-151.1093 -147.13272 567.0
-146.61374 -146.61372 565.0
-132.30653 -139.86691 539.0
-128.04945 -139.34792 537.0
-124.74617 -139.86691 539.0
-122.088104 -141.16438 544.0
-118.70768 -141.68336 546.0
-118.57443 -151.2846 583.0
-114.68204 -151.54411 584.0
-110.7756 -151.8036 585.0
-105.726006 -156.47449 603.0
-101.66529 -156.73398 604.0
-97.751854 -157.25296 606.0
-93.65605 -157.51247 607.0
-89.840805 -158.29092 610.0
-85.98347 -159.06941 613.0
-81.950806 -159.5884 615.0
-176.14688 -145.51263 546.0
-172.31761 -145.51263 546.0
-168.79692 -145.77914 547.0
-165.56378 -146.31215 549.0
-161.71342 -146.31215 549.0
-158.15067 -146.57867 550.0
-154.29333 -146.57867 550.0
-150.436 -146.57867 550.0
-146.57867 -146.57867 550.0
-142.46184 -146.31215 549.0
-138.864 -146.57867 550.0
-130.09734 -141.24854 530.0
-126.38027 -141.24854 530.0
-124.05185 -142.84758 536.0
-121.1904 -143.9136 540.0
-118.70768 -145.51263 546.0
-118.777824 -155.6399 584.0
-114.87841 -155.9064 585.0
-113.04792 -159.10448 597.0
-109.043304 -159.37099 598.0
-105.200005 -159.904 600.0
-101.160324 -160.1705 601.0
-97.26794 -160.70352 603.0
-93.65605 -161.76955 607.0
-89.69352 -162.30255 609.0
-85.8432 -163.10208 612.0
-179.64655 -149.0684 545.0
-176.14688 -149.34192 546.0
-172.31761 -149.34192 546.0
-168.17973 -149.0684 545.0
-164.65904 -149.34192 546.0
-160.82976 -149.34192 546.0
-157.00047 -149.34192 546.0
-153.45174 -149.61543 547.0
-149.61545 -149.61543 547.0
-145.77916 -149.61543 547.0
-141.94286 -149.61543 547.0
-132.552 -143.598 525.0
-128.87001 -143.598 525.0
-125.42646 -143.87152 526.0
-122.43177 -144.69206 529.0
-116.64577 -162.47087 594.0
-112.479836 -162.47087 594.0
-108.49627 -162.7444 595.0
-104.674 -163.29143 597.0
-100.992004 -164.112 600.0
-97.10662 -164.65904 602.0
-93.501755 -165.75311 606.0
-182.79553 -152.32959 543.0
-178.98727 -152.32959 543.0
-175.17905 -152.32959 543.0
-171.3708 -152.32959 543.0
-167.87115 -152.61012 544.0
-164.05591 -152.61012 544.0
-160.5352 -152.89066 545.0
-156.71294 -152.89066 545.0
-153.1712 -153.17119 546.0
-149.34193 -153.17119 546.0
-145.51265 -153.17119 546.0
-141.94286 -153.45174 547.0
-131.79456 -146.43839 522.0
-128.1336 -146.43839 522.0
-124.949554 -146.99945 524.0
-121.50601 -147.27998 525.0
-116.25302 -166.07573 592.0
-112.290474 -166.35626 593.0
-108.31392 -166.63678 594.0
-104.49867 -167.19786 596.0
-100.82369 -168.03946 599.0
-96.94532 -168.60052 601.0
-186.26012 -155.85028 542.0
-181.78561 -155.27519 540.0
-177.99841 -155.27519 540.0
-174.21121 -155.27519 540.0
-170.73961 -155.56273 541.0
-167.56256 -156.13782 543.0
-163.75433 -156.13782 543.0
-160.24063 -156.42537 544.0
-156.71294 -156.71292 545.0
-153.1712 -157.00047 546.0
-149.34193 -157.00047 546.0
-145.77916 -157.28801 547.0
-141.94286 -157.28801 547.0
-131.54208 -149.8118 521.0
-127.64267 -149.52426 520.0
-124.23419 -149.8118 521.0
-121.04314 -150.38689 523.0
-116.056656 -169.94006 591.0
-112.10112 -170.22762 592.0
-108.13157 -170.51517 593.0
-104.49867 -171.37779 596.0
-100.655365 -171.9529 598.0
-193.86256 -159.65154 542.0
-189.36 -159.06241 540.0
-185.22916 -158.76785 539.0
-180.7757 -158.17873 537.0
-177.33914 -158.4733 538.0
-173.88858 -158.76785 539.0
-170.42401 -159.06241 540.0
-166.63681 -159.06241 540.0
-163.45276 -159.65154 542.0
-160.24063 -160.24065 544.0
-157.00047 -160.82976 546.0
-153.1712 -160.82976 546.0
-149.61545 -161.12433 547.0
-146.04567 -161.4189 548.0
-142.46184 -161.71346 549.0
-131.03712 -152.87665 519.0
-127.64267 -153.17122 520.0
-123.75729 -152.87665 519.0
-119.18459 -172.61218 586.0
-115.6639 -173.49585 589.0
-111.91175 -174.08498 591.0
-107.766884 -174.08498 591.0
-193.1472 -162.84961 540.0
-188.65868 -162.24646 538.0
-184.54185 -161.94489 537.0
-180.1024 -161.34174 535.0
-176.6799 -161.64333 536.0
-173.24336 -161.94489 537.0
-170.10841 -162.54803 539.0
-166.63681 -162.84961 540.0
-163.15118 -163.15118 541.0
-160.24063 -164.05591 544.0
-157.00047 -164.65904 546.0
-153.45174 -164.96062 547.0
-150.436 -165.86534 550.0
-146.04567 -165.26219 548.0
-147.13272 -170.99208 567.0
-143.66112 -171.59523 569.0
-139.916 -171.89682 570.0
-136.63377 -172.80153 573.0
-133.30945 -173.70625 576.0
-129.71861 -174.30939 578.0
-126.09974 -174.91254 580.0
-122.66321 -175.81726 583.0
-119.18459 -176.72197 586.0
-115.46754 -177.32513 588.0
-111.533035 -177.62671 589.0
-107.40218 -177.62671 589.0
-196.9344 -166.6368 540.0
-192.07416 -165.71104 537.0
-187.60667 -165.09387 535.0
-183.5109 -164.78528 534.0
-179.76578 -164.78528 534.0
-176.02063 -164.78528 534.0
-172.92075 -165.40247 536.0
-169.7928 -166.01964 538.0
-166.63681 -166.6368 540.0
-163.15118 -166.94539 541.0
-160.24063 -167.87115 544.0
-157.00047 -168.48831 546.0
-154.8544 -170.33984 552.0
-150.98305 -170.33984 552.0
-150.84279 -174.66006 566.0
-147.39221 -175.27724 568.0
-143.66112 -175.58582 569.0
-139.916 -175.8944 570.0
-136.39531 -176.51158 572.0
-133.07802 -177.43735 575.0
-129.49419 -178.0545 577.0
-125.88232 -178.67168 579.0
-122.2424 -179.28886 581.0
-118.777824 -180.21461 584.0
-115.27116 -181.14038 587.0
-200.7216 -170.424 540.0
-195.11095 -168.846 535.0
-191.00111 -168.5304 534.0
-186.90533 -168.2148 533.0
-183.16724 -168.2148 533.0
-179.42914 -168.2148 533.0
-176.02063 -168.5304 534.0
-172.59814 -168.846 535.0
-169.4772 -169.4772 537.0
-166.63681 -170.424 540.0
-163.45276 -171.0552 542.0
-160.24063 -171.6864 544.0
-157.57558 -172.9488 548.0
-154.8544 -174.2112 552.0
-154.5388 -178.314 565.0
-150.84279 -178.6296 566.0
-147.39221 -179.2608 568.0
-143.9136 -179.892 570.0
-140.16147 -180.2076 571.0
-136.39531 -180.5232 572.0
-132.84657 -181.1544 574.0
-129.26976 -181.7856 576.0
-125.66491 -182.4168 578.0
-122.032005 -183.048 580.0
-118.57443 -183.9948 583.0
-198.49138 -172.27551 534.0
-194.38155 -171.95291 533.0
-190.64345 -171.95291 533.0
-186.55467 -171.6303 532.0
-182.47993 -171.30768 531.0
-179.0925 -171.6303 532.0
-175.69101 -171.95291 533.0
-172.59814 -172.59813 535.0
-169.4772 -173.24335 537.0
-166.63681 -174.2112 540.0
-163.45276 -174.85643 542.0
-160.82976 -176.14688 546.0
-157.57558 -176.7921 548.0
-157.37921 -180.98608 561.0
-154.26529 -181.95392 564.0
-150.57628 -182.27654 565.0
-147.13272 -182.92175 567.0
-143.66112 -183.56699 569.0
-139.916 -183.8896 570.0
-136.15686 -184.21222 571.0
-132.61513 -184.85744 573.0
-129.04533 -185.50266 575.0
-125.23008 -185.82527 576.0
-121.8216 -186.79312 579.0
-118.167656 -187.43834 581.0
-213.65419 -179.3169 544.0
-208.296 -177.99838 540.0
-202.99394 -176.67989 536.0
-198.49138 -176.02063 534.0
-194.38155 -175.69101 533.0
-189.92807 -175.03175 531.0
-185.85333 -174.70213 530.0
-182.13628 -174.70213 530.0
-178.75584 -175.03175 531.0
-175.36139 -175.36137 532.0
-172.27551 -176.02063 534.0
-169.4772 -177.00952 537.0
-166.63681 -177.99838 540.0
-163.45276 -178.65765 542.0
-161.41887 -180.6354 548.0
-160.1635 -183.60205 557.0
-157.37921 -184.92055 561.0
-153.99176 -185.57982 563.0
-150.57628 -186.23906 565.0
-146.61374 -186.23906 565.0
-143.40865 -187.22794 568.0
-139.42508 -187.22794 568.0
-135.67996 -187.55757 569.0
-132.15225 -188.21683 571.0
-128.37206 -188.54645 572.0
-124.57784 -188.87607 573.0
-121.19041 -189.86496 576.0
-117.5575 -190.52422 578.0
-110.7756 -192.83159 585.0
-99.81377 -195.46861 593.0
-96.13879 -196.45749 596.0
-92.11311 -196.78712 597.0
-84.30027 -198.10562 601.0
-80.48502 -199.0945 604.0
-76.50146 -199.75375 606.0
-247.99147 -183.13216 544.0
-244.17622 -183.13216 544.0
-241.6865 -184.14207 547.0
-217.06967 -182.7955 543.0
-212.47594 -182.12224 541.0
-207.91028 -181.44896 539.0
-202.2365 -179.76575 534.0
-198.11967 -179.42911 533.0
-193.65216 -178.75583 531.0
-189.5704 -178.41919 530.0
-185.50267 -178.08255 529.0
-182.13628 -178.41919 530.0
-178.4192 -178.41919 530.0
-175.36139 -179.09247 532.0
-172.27551 -179.76575 534.0
-169.7928 -181.1123 538.0
-166.63681 -181.78558 540.0
-163.75433 -182.7955 543.0
-163.77536 -187.17183 556.0
-160.45105 -187.84511 558.0
-157.09868 -188.51839 560.0
-153.71825 -189.19167 562.0
-150.30978 -189.86496 564.0
-146.61374 -190.20158 565.0
-142.6512 -190.20158 565.0
-138.68867 -190.20158 565.0
-134.9646 -190.53824 566.0
-131.45793 -191.2115 568.0
-127.69878 -191.54816 569.0
-124.36043 -192.55807 572.0
-120.559204 -192.8947 573.0
-117.5575 -194.57791 578.0
-114.092926 -195.58783 581.0
-110.39687 -196.26111 583.0
-106.49045 -196.59775 584.0
-103.096 -197.9443 588.0
-99.14049 -198.28096 589.0
-95.33225 -198.95422 591.0
-91.80453 -200.30078 595.0
-87.92616 -200.97408 597.0
-84.16 -201.984 600.0
-80.21851 -202.65727 602.0
-76.24897 -203.33055 604.0
-72.60904 -205.01375 609.0
-252.2696 -187.29108 545.0
-242.97694 -183.16724 533.0
-239.6877 -183.5109 534.0
-240.80281 -187.29108 545.0
-237.85019 -187.9784 547.0
-228.9152 -186.94742 544.0
-225.92754 -187.63474 546.0
-220.87794 -186.60378 543.0
-215.8704 -185.57281 540.0
-212.0832 -185.57281 540.0
-207.13881 -184.54185 537.0
-202.2365 -183.5109 534.0
-197.74796 -182.8236 532.0
-193.28748 -182.13629 530.0
-189.5704 -182.13629 530.0
-185.50267 -181.79262 529.0
-182.13628 -182.13629 530.0
-178.4192 -182.13629 530.0
-175.36139 -182.8236 532.0
-172.59814 -183.85454 535.0
-170.10841 -185.22916 539.0
-167.25398 -186.26012 542.0
-164.35747 -187.29108 545.0
-163.4808 -190.72762 555.0
-160.1635 -191.41492 557.0
-156.53761 -191.75858 558.0
-153.1712 -192.44588 560.0
-149.51025 -192.78954 561.0
-145.83525 -193.1332 562.0
-142.6512 -194.16414 565.0
-138.68867 -194.16414 565.0
-134.72614 -194.16414 565.0
-130.76361 -194.16414 565.0
-127.47434 -195.19511 568.0
-123.925606 -195.88242 570.0
-120.3488 -196.56972 572.0
-117.15073 -197.94434 576.0
-113.70017 -198.9753 579.0
-110.01815 -199.6626 581.0
-106.308105 -200.34991 583.0
-102.57001 -201.03722 585.0
-98.97217 -202.06818 588.0
-95.009636 -202.41182 589.0
-91.34165 -203.4428 592.0
-87.778885 -204.8174 596.0
-83.87947 -205.5047 598.0
-79.952 -206.19202 600.0
-75.99649 -206.87932 602.0
-255.50977 -185.15201 528.0
-252.28365 -185.50267 529.0
-248.10368 -185.15201 528.0
-244.40065 -185.15201 528.0
-241.15347 -185.50267 529.0
-239.23883 -186.90533 533.0
-239.03545 -189.71068 541.0
-236.5457 -190.76266 544.0
-232.73045 -190.76266 544.0
-228.9152 -190.76266 544.0
-223.85861 -189.71068 541.0
-219.65761 -189.36002 540.0
-215.47063 -189.00934 539.0
-210.90497 -188.30801 537.0
-206.75307 -187.95734 536.0
-202.2365 -187.25601 534.0
-197.74796 -186.55467 532.0
-193.28748 -185.85335 530.0
-189.5704 -185.85335 530.0
-185.85333 -185.85335 530.0
-182.13628 -185.85335 530.0
-179.0925 -186.55467 532.0
-175.69101 -186.90533 533.0
-172.92075 -187.95734 536.0
-170.42401 -189.36002 540.0
-167.56256 -190.41202 543.0
-167.07164 -194.26935 554.0
-163.18623 -194.26935 554.0
-159.58841 -194.62001 555.0
-156.25706 -195.32133 557.0
-152.62416 -195.67201 558.0
-148.71074 -195.67201 558.0
-145.05676 -196.02267 559.0
-141.64128 -196.72401 561.0
-137.95227 -197.07468 562.0
-134.24924 -197.42534 563.0
-130.76361 -198.12668 565.0
-127.0255 -198.47734 566.0
-123.70818 -199.52934 569.0
-120.138405 -200.23067 571.0
-116.74396 -201.28267 574.0
-113.30743 -202.33467 577.0
-109.45007 -202.68535 578.0
-105.94341 -203.73734 581.0
-102.39467 -204.78934 584.0
-98.63553 -205.49068 586.0
-94.848335 -206.19202 588.0
-91.187355 -207.24402 591.0
-87.6316 -208.64667 595.0
-83.739204 -209.348 597.0
-79.818756 -210.04935 599.0
-277.1389 -191.00113 534.0
-273.3938 -191.00113 534.0
-266.11392 -188.49736 527.0
-262.4179 -188.49736 527.0
-258.72186 -188.49736 527.0
-254.54195 -188.13968 526.0
-250.376 -187.782 525.0
-246.69402 -187.782 525.0
-242.54912 -187.42433 524.0
-238.41827 -187.06665 523.0
-235.19916 -187.42433 524.0
-239.91914 -194.22025 543.0
-235.67606 -193.86256 542.0
-231.01921 -193.1472 540.0
-227.23201 -193.1472 540.0
-222.61723 -192.43185 538.0
-218.4373 -192.07416 537.0
-214.67113 -192.07416 537.0
-210.11948 -191.3588 535.0
-205.98161 -191.00113 534.0
-202.2365 -191.00113 534.0
-197.37625 -189.92809 531.0
-193.28748 -189.5704 530.0
-189.5704 -189.5704 530.0
-185.50267 -189.21274 529.0
-182.13628 -189.5704 530.0
-179.0925 -190.28577 532.0
-176.02063 -191.00113 534.0
-173.24336 -192.07416 537.0
-171.3708 -194.22025 543.0
-168.17973 -194.9356 545.0
-166.46849 -197.43936 552.0
-162.89168 -197.79704 553.0
-159.01332 -197.79704 553.0
-155.41547 -198.15472 554.0
-152.07713 -198.87009 556.0
-148.44423 -199.22777 557.0
-144.53778 -199.22777 557.0
-140.88383 -199.58545 558.0
-137.21587 -199.94313 559.0
-133.77232 -200.65848 561.0
-130.30074 -201.37384 563.0
-126.80106 -202.0892 565.0
-123.27336 -202.80457 567.0
-120.138405 -204.23528 571.0
-116.54057 -204.95065 573.0
-113.30743 -206.38136 577.0
-109.63944 -207.09673 579.0
-106.12576 -208.16977 582.0
-102.39467 -208.88513 584.0
-98.63553 -209.60048 586.0
-95.009636 -210.67352 589.0
-91.187355 -211.38889 591.0
-285.1341 -192.55809 528.0
-280.89804 -192.19339 527.0
-280.358 -194.38156 533.0
-276.6199 -194.38156 533.0
-268.27405 -191.0993 524.0
-264.59903 -191.0993 524.0
-260.42612 -190.73462 523.0
-255.77628 -190.00522 521.0
-252.60625 -190.36992 522.0
-249.42221 -190.73462 523.0
-243.87463 -189.27585 519.0
-239.77185 -188.91115 518.0
-237.05067 -189.64053 520.0
-233.8526 -190.00522 521.0
-237.2681 -195.84032 537.0
-233.93675 -196.20502 538.0
-230.16359 -196.20502 538.0
-225.9696 -195.84032 537.0
-221.78967 -195.47562 536.0
-218.03052 -195.47562 536.0
-213.47183 -194.74625 534.0
-209.72672 -194.74625 534.0
-205.98161 -194.74625 534.0
-201.85776 -194.38156 533.0
-197.00455 -193.28748 530.0
-193.28748 -193.28748 530.0
-189.5704 -193.28748 530.0
-185.85333 -193.28748 530.0
-182.47993 -193.65216 531.0
-179.76578 -194.74625 534.0
-176.35027 -195.11093 535.0
-174.85643 -197.66379 542.0
-172.002 -198.75787 545.0
-169.1055 -199.85196 548.0
-165.86534 -200.58133 550.0
-162.00801 -200.58133 550.0
-158.72577 -201.31071 552.0
-155.13493 -201.67542 553.0
-151.53009 -202.0401 554.0
-147.64471 -202.0401 554.0
-144.0188 -202.4048 555.0
-140.37889 -202.7695 556.0
-136.9704 -203.49889 558.0
-133.53387 -204.22827 560.0
-130.06929 -204.95766 562.0
-126.80106 -206.05173 565.0
-123.05595 -206.41643 566.0
-119.717606 -207.51051 569.0
-116.54057 -208.96928 573.0
-113.111046 -210.06337 576.0
-109.8288 -211.52213 580.0
-106.308105 -212.61621 583.0
-102.57001 -213.3456 585.0
-98.80385 -214.07498 587.0
-282.8197 -192.17235 517.0
-280.81387 -193.28748 520.0
-277.69995 -193.65918 521.0
-272.99402 -192.91576 519.0
-269.87308 -193.28748 520.0
-266.22614 -193.28748 520.0
-261.06433 -192.17235 517.0
-257.43845 -192.17235 517.0
-253.81255 -192.17235 517.0
-249.21881 -191.42892 515.0
-245.13005 -191.05722 514.0
-241.99507 -191.42892 515.0
-238.84608 -191.80063 516.0
-235.68307 -192.17235 517.0
-232.50603 -192.54405 518.0
-236.82625 -199.23477 536.0
-232.63228 -198.86307 535.0
-228.45232 -198.49135 534.0
-225.128 -198.86307 535.0
-220.9621 -198.49135 534.0
-217.21698 -198.49135 534.0
-213.47183 -198.49135 534.0
-209.33398 -198.11964 533.0
-205.59587 -198.11964 533.0
-201.85776 -198.11964 533.0
-197.37625 -197.37624 531.0
-193.28748 -197.00453 530.0
-189.5704 -197.00453 530.0
-185.85333 -197.00453 530.0
-183.16724 -198.11964 533.0
-179.76578 -198.49135 534.0
-177.66876 -200.3499 539.0
-175.17905 -201.83672 543.0
-172.31761 -202.95183 546.0
-168.79692 -203.32355 547.0
-164.96063 -203.32355 547.0
-161.41887 -203.69525 548.0
-158.15067 -204.43867 550.0
-154.57387 -204.81038 551.0
-150.98305 -205.18208 552.0
-147.3782 -205.55379 553.0
-143.7593 -205.92549 554.0
-139.87392 -205.92549 554.0
-136.72495 -207.04062 557.0
-133.29543 -207.78403 559.0
-130.30074 -209.27084 563.0
-126.80106 -210.01427 565.0
-123.05595 -210.38597 566.0
-282.27264 -195.41953 516.0
-278.65378 -195.41953 516.0
-274.50186 -195.0408 515.0
-270.89 -195.0408 515.0
-267.79715 -195.41953 516.0
-264.17825 -195.41953 516.0
-259.54944 -194.66206 514.0
-254.9487 -193.90463 512.0
-251.35788 -193.90463 512.0
-248.25096 -194.28336 513.0
-244.17622 -193.90463 512.0
-241.05528 -194.28336 513.0
-237.45746 -194.28336 513.0
-235.68307 -195.79823 517.0
-232.05719 -195.79823 517.0
-235.94258 -202.23647 534.0
-232.19743 -202.23647 534.0
-228.45232 -202.23647 534.0
-224.70721 -202.23647 534.0
-220.5483 -201.85776 533.0
-216.40343 -201.47903 532.0
-212.67232 -201.47903 532.0
-208.94124 -201.47903 532.0
-204.8244 -201.10031 531.0
-201.10034 -201.10031 531.0
-197.37625 -201.10031 531.0
-193.28748 -200.7216 530.0
-189.5704 -200.7216 530.0
-186.55467 -201.47903 532.0
-183.5109 -202.23647 534.0
-180.43906 -202.99391 536.0
-177.99841 -204.5088 540.0
-175.17905 -205.64496 543.0
-171.6864 -206.02367 544.0
-168.17973 -206.4024 545.0
-164.65904 -206.78111 546.0
-160.82976 -206.78111 546.0
-157.28802 -207.15984 547.0
-154.0128 -207.91727 549.0
-150.70953 -208.67471 551.0
-147.1117 -209.05344 552.0
-143.4998 -209.43216 553.0
-139.87392 -209.81087 554.0
-136.9704 -211.32576 558.0
-133.53387 -212.0832 560.0
-130.30074 -213.21935 563.0
-126.80106 -213.9768 565.0
-279.53745 -197.10973 511.0
-277.0337 -197.88118 513.0
-273.43585 -197.88118 513.0
-268.786 -197.10973 511.0
-264.6832 -196.72398 510.0
-261.61838 -197.10973 511.0
-257.02463 -196.33826 509.0
-253.45485 -196.33826 509.0
-250.376 -196.72398 510.0
-247.28314 -197.10973 511.0
-243.69933 -197.10973 511.0
-240.1155 -197.10973 511.0
-236.99457 -197.49545 512.0
-234.31548 -198.26692 514.0
-231.60834 -199.03839 516.0
-227.98946 -199.03839 516.0
-230.89296 -204.82439 531.0
-227.16888 -204.82439 531.0
-223.44481 -204.82439 531.0
-219.30695 -204.43866 530.0
-215.58987 -204.43866 530.0
-211.8728 -204.43866 530.0
-208.15575 -204.43866 530.0
-204.8244 -204.82439 531.0
-200.7216 -204.43866 530.0
-197.37625 -204.82439 531.0
-193.65216 -204.82439 531.0
-190.28577 -205.21013 532.0
-187.25601 -205.98158 534.0
-183.85454 -206.36732 535.0
-180.7757 -207.1388 537.0
-177.99841 -208.29599 540.0
-174.53381 -208.68173 541.0
-171.3708 -209.45319 543.0
-167.56256 -209.45319 543.0
-164.05591 -209.83893 544.0
-160.82976 -210.61038 546.0
-157.00047 -210.61038 546.0
-153.45174 -210.99612 547.0
-150.436 -212.15334 550.0
-146.84518 -212.53906 551.0
-143.7593 -213.69626 554.0
-140.37889 -214.46773 556.0
-136.9704 -215.23918 558.0
-133.77232 -216.3964 561.0
-130.30074 -217.16786 563.0
-277.89633 -199.51529 508.0
-273.2535 -198.7298 506.0
-270.23776 -199.12256 507.0
-267.208 -199.51529 508.0
-263.12625 -199.12256 507.0
-259.5705 -199.12256 507.0
-256.0147 -199.12256 507.0
-252.95692 -199.51529 508.0
-249.88507 -199.90805 509.0
-247.28314 -200.69354 511.0
-243.69933 -200.69354 511.0
-239.64561 -200.30078 510.0
-236.0688 -200.30078 510.0
-232.94788 -200.69354 511.0
-229.81291 -201.08629 512.0
-227.10579 -201.87178 514.0
-230.0233 -207.76297 529.0
-226.31325 -207.76297 529.0
-222.60321 -207.76297 529.0
-218.89316 -207.76297 529.0
-215.18312 -207.76297 529.0
-211.47304 -207.76297 529.0
-208.15575 -208.15572 530.0
-204.43867 -208.15572 530.0
-201.10034 -208.54848 531.0
-197.74796 -208.94121 532.0
-194.38155 -209.33397 533.0
-190.64345 -209.33397 533.0
-187.25601 -209.7267 534.0
-184.1982 -210.51219 536.0
-181.11234 -211.2977 538.0
-177.99841 -212.08319 540.0
-174.21121 -212.08319 540.0
-171.0552 -212.86868 542.0
-167.25398 -212.86868 542.0
-163.75433 -213.26143 543.0
-160.24063 -213.65417 544.0
-157.00047 -214.43967 546.0
-153.45174 -214.83241 547.0
-150.16249 -215.6179 549.0
-146.84518 -216.40341 551.0
-143.7593 -217.58165 554.0
-140.63136 -218.75989 557.0
-274.06705 -200.27977 501.0
-271.09338 -200.67953 502.0
-268.63873 -201.47905 504.0
-265.104 -201.47905 504.0
-261.5693 -201.47905 504.0
-258.54654 -201.87881 505.0
-255.0048 -201.87881 505.0
-251.96101 -202.27856 506.0
-247.92134 -201.87881 505.0
-244.86354 -202.27856 506.0
-240.83788 -201.87881 505.0
-237.29614 -201.87881 505.0
-234.68016 -202.67833 507.0
-231.1244 -202.67833 507.0
-228.9152 -203.87761 510.0
-232.8497 -210.67352 527.0
-229.15366 -210.67352 527.0
-225.88545 -211.0733 528.0
-222.60321 -211.47305 529.0
-218.89316 -211.47305 529.0
-215.18312 -211.47305 529.0
-211.8728 -211.87282 530.0
-208.54848 -212.27257 531.0
-204.8244 -212.27257 531.0
-201.85776 -213.0721 533.0
-198.49138 -213.47185 534.0
-194.74623 -213.47185 534.0
-191.00111 -213.47185 534.0
-187.60667 -213.87161 535.0
-184.54185 -214.67113 537.0
-181.11234 -215.07089 538.0
-177.66876 -215.47066 539.0
-174.21121 -215.8704 540.0
-170.73961 -216.27017 541.0
-167.25398 -216.66994 542.0
-163.75433 -217.0697 543.0
-160.24063 -217.46947 544.0
-157.00047 -218.26897 546.0
-153.45174 -218.66873 547.0
-150.70953 -220.26776 551.0
-147.64471 -221.46706 554.0
-144.27829 -222.26657 556.0
-272.42593 -202.57314 498.0
-270.01334 -203.38667 500.0
-267.03967 -203.79344 501.0
-264.052 -204.20023 502.0
-260.5313 -204.20023 502.0
-257.01062 -204.20023 502.0
-253.48993 -204.20023 502.0
-249.96924 -204.20023 502.0
-246.44855 -204.20023 502.0
-243.41176 -204.607 503.0
-239.40717 -204.20023 502.0
-235.88646 -204.20023 502.0
-233.29152 -205.01376 504.0
-230.21268 -205.42055 505.0
-227.56865 -206.23409 507.0
-232.40785 -213.96278 526.0
-228.71883 -213.96278 526.0
-225.45763 -214.36955 527.0
-222.1824 -214.77634 528.0
-218.89316 -215.18309 529.0
-215.58987 -215.58989 530.0
-213.07208 -216.8102 533.0
-209.33398 -216.8102 533.0
-205.59587 -216.8102 533.0
-202.2365 -217.21696 534.0
-198.49138 -217.21696 534.0
-195.11095 -217.62375 535.0
-191.71648 -218.03052 536.0
-188.30801 -218.4373 537.0
-184.54185 -218.4373 537.0
-181.11234 -218.84407 538.0
-177.66876 -219.25082 539.0
-174.21121 -219.6576 540.0
-170.73961 -220.06438 541.0
-167.56256 -220.87793 543.0
-164.05591 -221.28471 544.0
-160.5352 -221.69148 545.0
-157.00047 -222.09824 546.0
-154.0128 -223.31856 549.0
-151.25656 -224.94568 553.0
-271.33185 -205.23819 496.0
-269.4733 -206.47955 499.0
-265.44064 -206.06577 498.0
-261.422 -205.65198 497.0
-257.9364 -205.65198 497.0
-254.45076 -205.65198 497.0
-251.97504 -206.47955 499.0
-248.47539 -206.47955 499.0
-245.46667 -206.89334 500.0
-242.44394 -207.30711 501.0
-238.93025 -207.30711 501.0
-235.88646 -207.7209 502.0
-232.36577 -207.7209 502.0
-229.7568 -208.54848 504.0
-226.22209 -208.54848 504.0
-231.966 -217.238 525.0
-228.71883 -217.6518 526.0
-225.45763 -218.06558 527.0
-222.60321 -218.89316 529.0
-218.89316 -218.89316 529.0
-215.99666 -219.72073 531.0
-213.07208 -220.54831 533.0
-209.72672 -220.9621 534.0
-206.36734 -221.37585 535.0
-202.6152 -221.37585 535.0
-199.23479 -221.78964 536.0
-195.84032 -222.20343 537.0
-192.07416 -222.20343 537.0
-188.30801 -222.20343 537.0
-184.54185 -222.20343 537.0
-181.11234 -222.61722 538.0
-177.99841 -223.4448 540.0
-174.21121 -223.4448 540.0
-171.0552 -224.27237 542.0
-167.87115 -225.09996 544.0
-164.35747 -225.51375 545.0
-160.82976 -225.92754 546.0
-157.28802 -226.34132 547.0

