ply
format ascii 1.0
comment made by @arthurmuchir
element vertex 951
property float x
property float y
property float z
end_header
-147.39221 -119.5072 568.0
-142.90369 -119.0864 566.0
-138.4432 -118.6656 564.0
-134.72614 -118.876 565.0
-130.99504 -119.0864 566.0
-156.17993 -124.14301 571.0
-151.64232 -123.70819 569.0
-146.87323 -123.05594 566.0
-142.39871 -122.62112 564.0
-137.46133 -121.75146 560.0
-133.77232 -121.96888 561.0
-130.76361 -122.83853 565.0
-127.47434 -123.49076 568.0
-164.76425 -128.59647 573.0
-160.7456 -128.59647 573.0
-156.17993 -128.14763 571.0
-151.37581 -127.47434 568.0
-146.61374 -126.801056 565.0
-139.11649 -123.65908 551.0
-135.98854 -124.33237 554.0
-132.3416 -124.556786 555.0
-129.37497 -125.45449 559.0
-127.0255 -127.02548 566.0
-123.27336 -127.249916 567.0
-173.70625 -133.30943 576.0
-169.66656 -133.30943 576.0
-165.62688 -133.30943 576.0
-160.46507 -132.38367 572.0
-156.17993 -132.15224 571.0
-150.57628 -130.76358 565.0
-141.68336 -126.366234 546.0
-138.61151 -127.060555 549.0
-135.25214 -127.52344 551.0
-132.10316 -128.21776 554.0
-129.14354 -129.14351 558.0
-126.127785 -130.06927 562.0
-123.27336 -131.22647 567.0
-119.5072 -131.4579 568.0
-115.72703 -131.68935 569.0
-112.325554 -132.38367 572.0
-170.95703 -132.10315 554.0
-167.07164 -132.10315 554.0
-163.4808 -132.34161 555.0
-159.58841 -132.34161 555.0
-155.97653 -132.58008 556.0
-152.07713 -132.58008 556.0
-148.97725 -133.29543 559.0
-140.90488 -129.48018 543.0
-137.09663 -129.48018 543.0
-134.02481 -130.19553 546.0
-130.67244 -130.67244 548.0
-128.44922 -132.34161 555.0
-125.454506 -133.29543 559.0
-122.40371 -134.24924 563.0
-118.6656 -134.4877 564.0
-115.11686 -134.9646 566.0
-111.736435 -135.67996 569.0
-108.31392 -136.39532 572.0
-185.15201 -135.00667 550.0
-180.96503 -134.76122 549.0
-177.11472 -134.76122 549.0
-173.8956 -135.25214 551.0
-170.03127 -135.25214 551.0
-166.46849 -135.49762 552.0
-162.59712 -135.49762 552.0
-159.30086 -135.98854 554.0
-155.41547 -135.98854 554.0
-151.53009 -135.98854 554.0
-148.71074 -136.97041 558.0
-139.86691 -132.30655 539.0
-136.3392 -132.55202 540.0
-133.53387 -133.53387 544.0
-130.43398 -134.27026 547.0
-127.986336 -135.74307 553.0
-124.78123 -136.47948 556.0
-121.09923 -136.72495 557.0
-117.824005 -137.46135 560.0
-114.303314 -137.95227 562.0
-111.147316 -138.93414 566.0
-107.74584 -139.67055 569.0
-187.63474 -137.85408 546.0
-183.80545 -137.85408 546.0
-179.97617 -137.85408 546.0
-176.4695 -138.10657 547.0
-172.63321 -138.10657 547.0
-169.4141 -138.61153 549.0
-165.86534 -138.864 550.0
-162.00801 -138.864 550.0
-158.4382 -139.11649 551.0
-155.13493 -139.62144 553.0
-151.53009 -139.87393 554.0
-142.84758 -135.32928 536.0
-138.82893 -135.0768 535.0
-135.58176 -135.58177 537.0
-132.552 -136.3392 540.0
-130.43398 -138.10657 547.0
-127.523445 -139.11649 551.0
-123.659096 -139.11649 551.0
-119.79475 -139.11649 551.0
-116.56161 -139.87393 554.0
-113.69316 -141.13634 559.0
-110.361824 -141.89377 562.0
-107.36712 -143.15616 567.0
-186.94743 -141.16438 544.0
-183.13219 -141.16438 544.0
-179.3169 -141.16438 544.0
-175.82428 -141.42387 545.0
-172.31761 -141.68336 546.0
-168.79692 -141.94286 547.0
-165.2622 -142.20235 548.0
-161.71342 -142.46185 549.0
-158.4382 -142.98082 551.0
-155.13493 -143.49982 553.0
-151.53009 -143.75931 554.0
-147.91121 -144.0188 555.0
-138.05045 -138.05046 532.0
-134.82433 -138.56944 534.0
-132.552 -140.1264 540.0
-130.19553 -141.68336 546.0
-126.36625 -141.68336 546.0
-122.536964 -141.68336 546.0
-119.35992 -142.46185 549.0
-115.930405 -142.98082 551.0
-113.286385 -144.5378 557.0
-110.16545 -145.57576 561.0
-106.988396 -146.61372 565.0
-190.06134 -144.44661 542.0
-185.5728 -143.9136 540.0
-182.12225 -144.1801 541.0
-178.65765 -144.44661 542.0
-175.17905 -144.71312 543.0
-171.6864 -144.97963 544.0
-168.48834 -145.51263 546.0
-165.2622 -146.04564 548.0
-161.71342 -146.31215 549.0
-158.4382 -146.84518 551.0
-155.13493 -147.37819 553.0
-151.53009 -147.6447 554.0
-148.44423 -148.44421 557.0
-137.27197 -140.98203 529.0
-134.06688 -141.51503 531.0
-132.552 -143.9136 540.0
-128.7648 -143.9136 540.0
-125.44049 -144.44661 542.0
-122.088104 -144.97963 544.0
-118.70768 -145.51263 546.0
-115.72 -146.57867 550.0
-112.8796 -147.9112 555.0
-110.16545 -149.51024 561.0
-106.988396 -150.57628 565.0
-81.929756 -141.51503 531.0
-193.1472 -147.7008 540.0
-189.00934 -147.42728 539.0
-185.22916 -147.42728 539.0
-181.44897 -147.42728 539.0
-177.99841 -147.7008 540.0
-174.53381 -147.97432 541.0
-171.3708 -148.52135 543.0
-168.17973 -149.0684 545.0
-165.2622 -149.88895 548.0
-162.00801 -150.436 550.0
-158.72577 -150.98303 552.0
-155.41547 -151.53008 554.0
-151.53009 -151.53008 554.0
-151.1093 -155.08583 567.0
-137.53146 -144.9656 530.0
-133.8144 -144.9656 530.0
-131.8156 -146.88023 537.0
-128.2879 -147.15375 538.0
-124.977615 -147.7008 540.0
-121.63925 -148.24783 542.0
-118.70768 -149.34192 546.0
-115.72 -150.436 550.0
-112.67622 -151.53008 554.0
-92.751335 -144.69206 529.0
-89.04129 -144.69206 529.0
-85.33124 -144.69206 529.0
-81.77546 -144.9656 530.0
-192.43185 -150.92693 538.0
-188.30801 -150.6464 537.0
-184.1982 -150.36586 536.0
-180.7757 -150.6464 537.0
-177.33914 -150.92693 538.0
-174.21121 -151.48799 540.0
-171.0552 -152.04906 542.0
-167.87115 -152.61012 544.0
-164.65904 -153.17119 546.0
-162.00801 -154.29333 550.0
-159.30086 -155.41545 554.0
-158.50134 -158.50133 565.0
-155.35936 -159.34293 568.0
-151.37581 -159.34293 568.0
-147.39221 -159.34293 568.0
-134.57184 -149.52426 533.0
-131.32468 -150.08533 535.0
-128.04945 -150.6464 537.0
-124.51473 -150.92693 538.0
-121.414825 -151.76852 541.0
-118.05544 -152.32959 543.0
-115.509605 -154.01279 549.0
-107.184784 -147.84106 527.0
-103.096016 -147.27998 525.0
-99.60336 -147.56053 526.0
-95.914345 -147.56053 526.0
-92.225334 -147.56053 526.0
-88.87297 -148.12158 528.0
-85.33124 -148.40213 529.0
-81.77546 -148.68266 530.0
-196.20502 -154.70009 538.0
-191.35881 -153.83746 535.0
-187.25601 -153.54991 534.0
-183.5109 -153.54991 534.0
-180.1024 -153.83746 535.0
-176.6799 -154.125 536.0
-173.56598 -154.70009 538.0
-170.42401 -155.27519 540.0
-167.56256 -156.13782 543.0
-164.65904 -157.00047 546.0
-162.00801 -158.15067 550.0
-159.30086 -159.30084 554.0
-158.50134 -162.46385 565.0
-155.35936 -163.32649 568.0
-151.64232 -163.61403 569.0
-147.6517 -163.61403 569.0
-134.31937 -152.97481 532.0
-130.83374 -153.26236 533.0
-127.33409 -153.54991 534.0
-124.283295 -154.41255 537.0
-121.1904 -155.27519 540.0
-117.83803 -155.85028 542.0
-118.87601 -162.46385 565.0
-106.37124 -150.38689 523.0
-102.899635 -150.67445 524.0
-99.22464 -150.67445 524.0
-95.732 -150.96199 525.0
-92.225334 -151.24954 526.0
-88.87297 -151.82462 528.0
-85.33124 -152.11218 529.0
-81.81756 -176.55363 614.0
-77.38513 -176.2661 613.0
-199.60649 -158.17873 537.0
-195.11095 -157.58961 535.0
-191.00111 -157.29504 534.0
-186.90533 -157.00049 533.0
-183.16724 -157.00049 533.0
-179.76578 -157.29504 534.0
-176.35027 -157.58961 535.0
-173.56598 -158.4733 538.0
-170.42401 -159.06241 540.0
-167.56256 -159.94609 543.0
-164.65904 -160.82976 546.0
-162.00801 -162.00801 550.0
-162.46387 -166.4264 565.0
-158.50134 -166.4264 565.0
-155.35936 -167.31009 568.0
-151.64232 -167.60464 569.0
-147.6517 -167.60464 569.0
-133.8144 -156.1168 530.0
-130.09734 -156.1168 530.0
-126.85718 -156.70593 532.0
-124.05185 -157.88417 536.0
-121.1904 -159.06241 540.0
-123.490776 -167.31009 568.0
-118.87601 -166.4264 565.0
-114.91347 -166.4264 565.0
-102.70327 -154.0549 523.0
-99.22464 -154.34944 524.0
-95.732 -154.64401 525.0
-92.05 -154.64401 525.0
-89.04129 -155.82225 529.0
-97.10662 -177.32513 602.0
-93.19317 -177.91425 604.0
-89.25168 -178.50337 606.0
-85.14187 -178.79793 607.0
-81.15129 -179.38705 609.0
-77.25889 -180.27074 612.0
-73.08594 -180.56529 613.0
-198.49138 -161.04016 534.0
-194.38155 -160.73859 533.0
-190.28577 -160.43703 532.0
-186.55467 -160.43703 532.0
-182.82358 -160.43703 532.0
-179.42914 -160.73859 533.0
-176.02063 -161.04016 534.0
-173.56598 -162.24646 538.0
-170.42401 -162.84961 540.0
-167.56256 -163.75433 543.0
-164.65904 -164.65904 546.0
-162.00801 -165.86534 550.0
-161.60123 -169.48422 562.0
-158.50134 -170.38895 565.0
-155.35936 -171.29366 568.0
-151.64232 -171.59523 569.0
-147.6517 -171.59523 569.0
-143.15616 -170.99208 567.0
-130.09734 -159.83388 530.0
-126.85718 -160.43703 532.0
-132.3837 -172.49995 572.0
-127.923195 -171.89682 570.0
-123.925606 -171.89682 570.0
-119.0864 -170.69052 566.0
-115.11686 -170.69052 566.0
-102.70327 -157.72285 523.0
-99.03527 -157.72285 523.0
-95.54965 -158.02443 524.0
-92.05 -158.32602 525.0
-100.487045 -180.03928 597.0
-96.78401 -180.94402 600.0
-92.88458 -181.54715 602.0
-88.957115 -182.15031 604.0
-85.0016 -182.75345 606.0
-80.88478 -183.05502 607.0
-77.00641 -183.95975 610.0
-72.96671 -184.56288 612.0
-206.75307 -165.40247 536.0
-202.2365 -164.78528 534.0
-197.74796 -164.1681 532.0
-193.28748 -163.55095 530.0
-189.5704 -163.55095 530.0
-185.85333 -163.55095 530.0
-182.13628 -163.55095 530.0
-179.0925 -164.1681 532.0
-176.02063 -164.78528 534.0
-172.92075 -165.40247 536.0
-170.42401 -166.6368 540.0
-167.56256 -167.56256 543.0
-164.65904 -168.48831 546.0
-164.36447 -172.19136 558.0
-161.31367 -173.11711 561.0
-158.50134 -174.35147 565.0
-155.08585 -174.96864 567.0
-151.37581 -175.27724 568.0
-147.39221 -175.27724 568.0
-143.40865 -175.27724 568.0
-139.42508 -175.27724 568.0
-135.4415 -175.27724 568.0
-131.68938 -175.58582 569.0
-127.923195 -175.8944 570.0
-124.36043 -176.51158 572.0
-120.559204 -176.82016 573.0
-117.15073 -177.74593 576.0
-110.558205 -173.7343 563.0
-111.533035 -181.75755 589.0
-107.766884 -182.37473 591.0
-103.97267 -182.9919 593.0
-100.150406 -183.60907 595.0
-96.30009 -184.22624 597.0
-92.576 -185.152 600.0
-88.51528 -185.46059 601.0
-84.72107 -186.38635 604.0
-80.751526 -187.00352 606.0
-76.880165 -187.92928 609.0
-206.36734 -168.846 535.0
-201.47905 -167.8992 532.0
-197.00455 -167.268 530.0
-192.92276 -166.9524 529.0
-189.21272 -166.9524 529.0
-185.50267 -166.9524 529.0
-181.79263 -166.9524 529.0
-178.75584 -167.5836 531.0
-176.02063 -168.5304 534.0
-172.59814 -168.846 535.0
-170.42401 -170.424 540.0
-167.56256 -171.3708 543.0
-165.2622 -172.9488 548.0
-164.36447 -176.1048 558.0
-161.31367 -177.0516 561.0
-158.50134 -178.314 565.0
-154.81233 -178.6296 566.0
-150.84279 -178.6296 566.0
-147.13272 -178.9452 567.0
-143.40865 -179.2608 568.0
-139.42508 -179.2608 568.0
-135.4415 -179.2608 568.0
-131.45793 -179.2608 568.0
-127.923195 -179.892 570.0
-124.36043 -180.5232 572.0
-120.98 -181.47 575.0
-117.760895 -182.7324 579.0
-114.485664 -183.9948 583.0
-111.15432 -185.2572 587.0
-107.58453 -186.204 590.0
-103.79734 -186.8352 592.0
-99.81377 -187.1508 593.0
-96.13879 -188.0976 596.0
-92.2674 -188.7288 598.0
-88.51528 -189.6756 601.0
-84.5808 -190.3068 603.0
-80.751526 -191.2536 606.0
-244.62508 -175.82426 545.0
-210.5122 -172.92075 536.0
-205.98161 -172.27551 534.0
-201.10034 -171.30768 531.0
-196.63284 -170.66245 529.0
-192.92276 -170.66245 529.0
-189.21272 -170.66245 529.0
-185.50267 -170.66245 529.0
-181.79263 -170.66245 529.0
-178.75584 -171.30768 531.0
-175.69101 -171.95291 533.0
-173.24336 -173.24335 537.0
-170.42401 -174.2112 540.0
-167.87115 -175.50165 544.0
-165.2622 -176.7921 548.0
-164.06992 -179.69562 557.0
-161.31367 -180.98608 561.0
-157.65974 -181.3087 562.0
-154.26529 -181.95392 564.0
-150.57628 -182.27654 565.0
-146.61374 -182.27654 565.0
-142.90369 -182.59914 566.0
-138.93414 -182.59914 566.0
-135.20305 -182.92175 567.0
-131.45793 -183.24437 568.0
-128.14763 -184.21222 571.0
-124.36043 -184.53482 572.0
-121.19041 -185.82527 576.0
-117.760895 -186.79312 579.0
-114.28929 -187.76096 582.0
-110.7756 -188.7288 585.0
-107.40218 -190.01924 589.0
-103.79734 -190.98709 592.0
-99.81377 -191.30971 593.0
-95.97748 -191.95493 595.0
-88.51528 -193.89061 601.0
-248.57356 -174.37251 529.0
-243.27852 -178.65765 542.0
-214.27136 -176.67989 536.0
-209.72672 -176.02063 534.0
-205.59587 -175.69101 533.0
-201.10034 -175.03175 531.0
-196.63284 -174.37251 529.0
-192.92276 -174.37251 529.0
-189.21272 -174.37251 529.0
-185.50267 -174.37251 529.0
-181.79263 -174.37251 529.0
-178.75584 -175.03175 531.0
-175.69101 -175.69101 533.0
-173.24336 -177.00952 537.0
-170.42401 -177.99838 540.0
-168.48834 -179.97615 546.0
-166.16692 -181.62428 551.0
-163.77536 -183.27243 556.0
-160.45105 -183.93167 558.0
-157.09868 -184.59093 560.0
-153.44473 -184.92055 561.0
-149.77676 -185.25018 562.0
-145.83525 -185.25018 562.0
-142.6512 -186.23906 565.0
-138.68867 -186.23906 565.0
-134.9646 -186.56868 566.0
-131.45793 -187.22794 568.0
-127.923195 -187.88719 570.0
-124.36043 -188.54645 572.0
-120.98 -189.53532 575.0
-117.760895 -190.85384 579.0
-114.485664 -192.17235 583.0
-110.7756 -192.83159 585.0
-107.21984 -193.82047 588.0
-103.622 -194.80936 591.0
-99.81377 -195.46861 593.0
-255.77628 -175.38943 521.0
-250.376 -176.736 525.0
-248.57356 -178.08255 529.0
-243.47488 -177.07263 526.0
-239.78587 -177.07263 526.0
-237.44344 -178.08255 529.0
-239.4773 -182.45886 542.0
-236.5457 -183.13216 544.0
-230.59138 -181.44896 539.0
-226.8112 -181.44896 539.0
-222.20345 -180.77567 537.0
-218.03052 -180.43904 536.0
-213.47183 -179.76575 534.0
-209.72672 -179.76575 534.0
-205.21014 -179.09247 532.0
-200.7216 -178.41919 530.0
-196.63284 -178.08255 529.0
-192.92276 -178.08255 529.0
-189.21272 -178.08255 529.0
-185.50267 -178.08255 529.0
-182.13628 -178.41919 530.0
-179.0925 -179.09247 532.0
-176.02063 -179.76575 534.0
-173.24336 -180.77567 537.0
-171.3708 -182.7955 543.0
-168.79692 -184.14207 547.0
-166.77007 -186.16191 553.0
-163.18623 -186.49855 554.0
-159.58841 -186.83519 555.0
-156.25706 -187.50847 557.0
-152.62416 -187.84511 558.0
-148.97725 -188.18175 559.0
-145.57576 -188.85504 561.0
-141.89377 -189.19167 562.0
-138.4432 -189.86496 564.0
-134.9646 -190.53824 566.0
-131.22649 -190.87486 567.0
-127.69878 -191.54816 569.0
-124.36043 -192.55807 572.0
-120.76961 -193.23135 574.0
-117.5575 -194.57791 578.0
-114.68204 -196.59775 584.0
-271.85785 -182.47993 531.0
-268.13376 -182.47993 531.0
-260.92404 -180.07436 524.0
-257.24908 -180.07436 524.0
-252.12234 -179.0434 521.0
-248.9453 -179.38705 522.0
-244.81444 -179.0434 521.0
-241.62337 -179.38705 522.0
-238.87415 -180.07436 524.0
-241.93196 -185.22916 539.0
-237.70995 -184.88551 538.0
-233.50192 -184.54185 537.0
-229.73576 -184.54185 537.0
-225.9696 -184.54185 537.0
-221.37587 -183.85454 535.0
-217.21698 -183.5109 534.0
-213.47183 -183.5109 534.0
-209.33398 -183.16724 533.0
-204.43867 -182.13629 530.0
-200.7216 -182.13629 530.0
-196.63284 -181.79262 529.0
-192.55807 -181.44897 528.0
-189.21272 -181.79262 529.0
-185.50267 -181.79262 529.0
-182.13628 -182.13629 530.0
-179.42914 -183.16724 533.0
-176.02063 -183.5109 534.0
-174.21121 -185.57281 540.0
-171.6864 -186.94742 544.0
-169.1055 -188.32204 548.0
-166.16692 -189.353 551.0
-162.59712 -189.69666 552.0
-159.30086 -190.38396 554.0
-155.41547 -190.38396 554.0
-151.8036 -190.72762 555.0
-148.44423 -191.41492 557.0
-144.79727 -191.75858 558.0
-141.64128 -192.78954 561.0
-138.19774 -193.47684 563.0
-134.72614 -194.16414 565.0
-130.99504 -194.5078 566.0
-127.47434 -195.19511 568.0
-124.57784 -196.91338 573.0
-120.76961 -197.25702 574.0
-283.0301 -186.20401 531.0
-277.728 -185.15201 528.0
-273.50598 -184.80135 527.0
-271.3459 -185.85335 530.0
-263.08417 -182.69734 521.0
-259.4302 -182.69734 521.0
-255.77628 -182.69734 521.0
-251.63841 -182.34666 520.0
-247.51459 -181.99602 519.0
-243.40474 -181.64534 518.0
-239.77185 -181.64534 518.0
-237.50655 -182.69734 521.0
-240.5854 -187.95734 536.0
-236.82625 -187.95734 536.0
-233.0671 -187.95734 536.0
-228.88014 -187.60667 535.0
-224.70721 -187.25601 534.0
-220.9621 -187.25601 534.0
-216.81021 -186.90533 533.0
-212.67232 -186.55467 532.0
-208.94124 -186.55467 532.0
-204.43867 -185.85335 530.0
-200.3429 -185.50267 529.0
-196.63284 -185.50267 529.0
-192.92276 -185.50267 529.0
-189.21272 -185.50267 529.0
-185.50267 -185.50267 529.0
-182.47993 -186.20401 531.0
-179.42914 -186.90533 533.0
-176.6799 -187.95734 536.0
-174.21121 -189.36002 540.0
-172.002 -191.11334 545.0
-168.79692 -191.81467 547.0
-165.2622 -192.16534 548.0
-162.00801 -192.86667 550.0
-158.72577 -193.56801 552.0
-155.41547 -194.26935 554.0
-151.53009 -194.26935 554.0
-147.64471 -194.26935 554.0
-144.27829 -194.97067 556.0
-140.88383 -195.67201 558.0
-137.7068 -196.72401 561.0
-134.48769 -197.77602 564.0
-130.76361 -198.12668 565.0
-127.69878 -199.52934 569.0
-124.57784 -200.932 573.0
-285.6741 -189.21274 529.0
-276.10092 -185.27824 518.0
-271.94202 -184.92056 517.0
-268.31613 -184.92056 517.0
-264.69022 -184.92056 517.0
-261.06433 -184.92056 517.0
-257.9364 -185.27824 518.0
-254.30348 -185.27824 518.0
-248.7349 -183.84753 514.0
-245.13005 -183.84753 514.0
-241.52516 -183.84753 514.0
-237.92032 -183.84753 514.0
-234.77135 -184.2052 515.0
-239.6877 -191.00113 534.0
-235.50073 -190.64345 533.0
-232.19743 -191.00113 534.0
-228.02452 -190.64345 533.0
-223.44481 -189.92809 531.0
-219.72073 -189.92809 531.0
-215.58987 -189.5704 530.0
-211.8728 -189.5704 530.0
-208.15575 -189.5704 530.0
-204.05295 -189.21274 529.0
-200.3429 -189.21274 529.0
-196.63284 -189.21274 529.0
-192.92276 -189.21274 529.0
-189.21272 -189.21274 529.0
-185.85333 -189.5704 530.0
-182.47993 -189.92809 531.0
-179.76578 -191.00113 534.0
-177.00952 -192.07416 537.0
-174.21121 -193.1472 540.0
-171.6864 -194.57793 544.0
-168.48834 -195.29329 546.0
-164.65904 -195.29329 546.0
-161.41887 -196.00865 548.0
-158.15067 -196.724 550.0
-154.57387 -197.08168 551.0
-150.98305 -197.43936 552.0
-147.64471 -198.15472 554.0
-143.7593 -198.15472 554.0
-140.63136 -199.22777 557.0
-137.7068 -200.65848 561.0
-134.24924 -201.37384 563.0
-131.22649 -202.80457 567.0
-282.8197 -188.54646 517.0
-277.5737 -187.45238 514.0
-274.50186 -187.81708 515.0
-271.41602 -188.18176 516.0
-267.79715 -188.18176 516.0
-264.17825 -188.18176 516.0
-261.06433 -188.54646 517.0
-254.45074 -186.35829 511.0
-249.88507 -185.6289 509.0
-247.28314 -186.35829 511.0
-243.69933 -186.35829 511.0
-239.64561 -185.9936 510.0
-236.53168 -186.35829 511.0
-234.31548 -187.45238 514.0
-239.23883 -194.38156 533.0
-234.1752 -193.28748 530.0
-230.45815 -193.28748 530.0
-226.74107 -193.28748 530.0
-223.024 -193.28748 530.0
-218.89316 -192.92278 529.0
-215.18312 -192.92278 529.0
-211.47304 -192.92278 529.0
-207.76299 -192.92278 529.0
-204.05295 -192.92278 529.0
-200.3429 -192.92278 529.0
-196.26114 -192.55809 528.0
-192.92276 -192.92278 529.0
-189.21272 -192.92278 529.0
-185.85333 -193.28748 530.0
-182.82358 -194.01686 532.0
-179.76578 -194.74625 534.0
-177.00952 -195.84032 537.0
-174.21121 -196.9344 540.0
-171.3708 -198.02849 543.0
-167.87115 -198.39317 544.0
-164.35747 -198.75787 545.0
-160.82976 -199.12256 546.0
-157.57558 -199.85196 548.0
-154.29333 -200.58133 550.0
-150.70953 -200.94603 551.0
-147.1117 -201.31071 552.0
-143.7593 -202.0401 554.0
-140.63136 -203.13419 557.0
-137.46133 -204.22827 560.0
-134.48769 -205.68704 564.0
-278.99042 -189.5704 510.0
-276.49365 -190.31381 512.0
-273.96884 -191.05722 514.0
-268.786 -189.94211 511.0
-265.2022 -189.94211 511.0
-257.01062 -186.59674 502.0
-254.49983 -187.34015 504.0
-251.96101 -188.08357 506.0
-248.90321 -188.45528 507.0
-245.34746 -188.45528 507.0
-242.2686 -188.827 508.0
-238.70581 -188.827 508.0
-236.0688 -189.5704 510.0
-232.94788 -189.94211 511.0
-230.26176 -190.68552 513.0
-233.73338 -196.63283 529.0
-230.0233 -196.63283 529.0
-226.31325 -196.63283 529.0
-222.1824 -196.26112 528.0
-218.47937 -196.26112 528.0
-214.77634 -196.26112 528.0
-210.67352 -195.8894 527.0
-206.9775 -195.8894 527.0
-203.6672 -196.26112 528.0
-200.3429 -196.63283 529.0
-196.26114 -196.26112 528.0
-192.92276 -196.63283 529.0
-189.21272 -196.63283 529.0
-186.20401 -197.37624 531.0
-183.16724 -198.11964 533.0
-179.76578 -198.49135 534.0
-177.00952 -199.60648 537.0
-174.21121 -200.7216 540.0
-170.73961 -201.0933 541.0
-167.56256 -201.83672 543.0
-164.05591 -202.20842 544.0
-160.5352 -202.58012 545.0
-157.28802 -203.32355 547.0
-154.29333 -204.43867 550.0
-150.436 -204.43867 550.0
-146.84518 -204.81038 551.0
-143.7593 -205.92549 554.0
-140.63136 -207.04062 557.0
-277.89633 -192.38976 508.0
-274.33356 -192.38976 508.0
-269.17175 -191.2536 505.0
-265.63 -191.2536 505.0
-261.5693 -190.87486 504.0
-258.03458 -190.87486 504.0
-254.49983 -190.87486 504.0
-250.96512 -190.87486 504.0
-248.41228 -191.63232 506.0
-245.34746 -192.01103 507.0
-241.7917 -192.01103 507.0
-238.23592 -192.01103 507.0
-235.60593 -192.76846 509.0
-232.94788 -193.52592 511.0
-229.36407 -193.52592 511.0
-233.29153 -199.96416 528.0
-229.15366 -199.58543 527.0
-225.45763 -199.58543 527.0
-221.3408 -199.20671 526.0
-217.65181 -199.20671 526.0
-213.96278 -199.20671 526.0
-210.67352 -199.58543 527.0
-206.9775 -199.58543 527.0
-203.28148 -199.58543 527.0
-200.3429 -200.34286 529.0
-196.63284 -200.34286 529.0
-192.92276 -200.34286 529.0
-189.5704 -200.7216 530.0
-186.55467 -201.47903 532.0
-183.5109 -202.23647 534.0
-180.1024 -202.6152 535.0
-177.00952 -203.37263 537.0
-174.21121 -204.5088 540.0
-170.42401 -204.5088 540.0
-167.25398 -205.26624 542.0
-163.75433 -205.64496 543.0
-160.24063 -206.02367 544.0
-157.00047 -206.78111 546.0
-153.73227 -207.53856 548.0
-150.436 -208.296 550.0
-147.1117 -209.05344 552.0
-144.0188 -210.1896 555.0
-273.52002 -192.86665 500.0
-271.09338 -193.63812 502.0
-267.5727 -193.63812 502.0
-264.052 -193.63812 502.0
-260.5313 -193.63812 502.0
-257.5226 -194.02386 503.0
-254.49983 -194.40959 504.0
-250.96512 -194.40959 504.0
-247.4304 -194.40959 504.0
-243.41176 -194.02386 503.0
-239.40717 -193.63812 502.0
-236.35634 -194.02386 503.0
-232.82866 -194.02386 503.0
-230.21268 -194.79533 505.0
-227.56865 -195.56679 507.0
-231.966 -202.51 525.0
-227.84917 -202.12425 524.0
-224.602 -202.51 525.0
-220.92001 -202.51 525.0
-217.238 -202.51 525.0
-213.96278 -202.89574 526.0
-210.27376 -202.89574 526.0
-206.9775 -203.28146 527.0
-204.05295 -204.05293 529.0
-200.3429 -204.05293 529.0
-197.00455 -204.43866 530.0
-193.65216 -204.82439 531.0
-190.28577 -205.21013 532.0
-186.90533 -205.59586 533.0
-183.5109 -205.98158 534.0
-180.43906 -206.75305 536.0
-177.00952 -207.1388 537.0
-173.88858 -207.91026 539.0
-170.42401 -208.29599 540.0
-166.63681 -208.29599 540.0
-163.45276 -209.06746 542.0
-160.24063 -209.83893 544.0
-157.00047 -210.61038 546.0
-153.73227 -211.38185 548.0
-150.70953 -212.53906 551.0
-271.8789 -195.19508 497.0
-269.4733 -195.98058 499.0
-266.50668 -196.37332 500.0
-264.052 -197.15881 502.0
-260.5313 -197.15881 502.0
-257.01062 -197.15881 502.0
-253.48993 -197.15881 502.0
-249.47128 -196.76607 501.0
-245.95761 -196.76607 501.0
-241.96 -196.37332 500.0
-238.93025 -196.76607 501.0
-235.41656 -196.76607 501.0
-232.36577 -197.15881 502.0
-228.84508 -197.15881 502.0
-226.22209 -197.9443 504.0
-230.64049 -205.01375 522.0
-226.97952 -205.01375 522.0
-224.1742 -205.79924 524.0
-220.4992 -205.79924 524.0
-217.238 -206.19199 525.0
-213.96278 -206.58475 526.0
-210.67352 -206.97748 527.0
-207.76299 -207.76297 529.0
-204.43867 -208.15572 530.0
-200.7216 -208.15572 530.0
-197.37625 -208.54848 531.0
-194.38155 -209.33397 533.0
-190.64345 -209.33397 533.0
-187.25601 -209.7267 534.0
-183.5109 -209.7267 534.0
-180.1024 -210.11946 535.0
-176.6799 -210.51219 536.0
-173.56598 -211.2977 538.0
-170.42401 -212.08319 540.0
-166.63681 -212.08319 540.0
-163.45276 -212.86868 542.0
-160.24063 -213.65417 544.0
-157.00047 -214.43967 546.0
-271.33185 -198.28096 496.0
-268.9333 -199.08049 498.0
-265.97366 -199.48026 499.0
-261.948 -199.08049 498.0
-258.45535 -199.08049 498.0
-255.47472 -199.48026 499.0
-250.96512 -198.68073 497.0
-247.47949 -198.68073 497.0
-244.4848 -199.08049 498.0
-240.50826 -198.68073 497.0
-237.49954 -199.08049 498.0
-234.47676 -199.48026 499.0
-230.97713 -199.48026 499.0
-228.3892 -200.27977 501.0
-225.77322 -201.0793 503.0
-230.19865 -208.27496 521.0
-226.97952 -208.67473 522.0
-224.1742 -209.47424 524.0
-220.92001 -209.87401 525.0
-217.65181 -210.27376 526.0
-214.36957 -210.67352 527.0
-211.47304 -211.47305 529.0
-208.15575 -211.87282 530.0
-204.8244 -212.27257 531.0
-201.85776 -213.0721 533.0
-198.49138 -213.47185 534.0
-194.74623 -213.47185 534.0
-191.00111 -213.47185 534.0
-187.25601 -213.47185 534.0
-183.85454 -213.87161 535.0
-180.43906 -214.27136 536.0
-176.6799 -214.27136 536.0
-173.56598 -215.07089 538.0
-170.42401 -215.8704 540.0
-167.25398 -216.66994 542.0
-163.75433 -217.0697 543.0
-160.5352 -217.8692 545.0
-270.2378 -200.94603 494.0
-267.3132 -201.35281 495.0
-263.3086 -200.94603 494.0
-259.84402 -200.94603 494.0
-256.37943 -200.94603 494.0
-252.91486 -200.94603 494.0
-249.45024 -200.94603 494.0
-246.98155 -201.75958 496.0
-243.50294 -201.75958 496.0
-240.02434 -201.75958 496.0
-236.54572 -201.75958 496.0
-233.53699 -202.16635 497.0
-230.97713 -202.97989 499.0
-227.47748 -202.97989 499.0
-223.97783 -202.97989 499.0
-230.64049 -212.33568 522.0
-227.84917 -213.14923 524.0
-224.602 -213.55602 525.0
-221.76161 -214.36955 527.0
-218.47937 -214.77634 528.0
-215.18312 -215.18309 529.0
-211.8728 -215.58989 530.0
-208.54848 -215.99663 531.0
-205.59587 -216.8102 533.0
-202.2365 -217.21696 534.0
-198.49138 -217.21696 534.0
-195.11095 -217.62375 535.0
-191.35881 -217.62375 535.0
-187.60667 -217.62375 535.0
-184.1982 -218.03052 536.0
-180.43906 -218.03052 536.0
-177.00952 -218.4373 537.0
-174.21121 -219.6576 540.0
-171.0552 -220.47116 542.0
-167.56256 -220.87793 543.0
-267.5026 -202.34169 489.0
-264.07303 -202.34169 489.0
-261.17654 -202.75548 490.0
-258.26602 -203.16927 491.0
-254.82248 -203.16927 491.0
-252.40288 -203.99684 493.0
-249.45024 -204.41061 494.0
-246.48361 -204.8244 495.0
-243.50294 -205.23819 496.0
-240.02434 -205.23819 496.0
-236.54572 -205.23819 496.0
-233.0671 -205.23819 496.0
-229.58849 -205.23819 496.0
-226.56573 -205.65198 497.0
-223.97783 -206.47955 499.0
-231.08234 -216.41043 523.0
-227.84917 -216.82422 524.0
-224.602 -217.238 525.0
-221.76161 -218.06558 527.0
-218.47937 -218.47937 528.0
-215.18312 -218.89316 529.0
-211.8728 -219.30695 530.0
-209.33398 -220.54831 533.0
-205.98161 -220.9621 534.0
-202.2365 -220.9621 534.0
-198.86307 -221.37585 535.0
-195.47563 -221.78964 536.0
-191.71648 -221.78964 536.0
-187.95734 -221.78964 536.0
-184.54185 -222.20343 537.0
-180.7757 -222.20343 537.0
-177.66876 -223.031 539.0
-174.21121 -223.4448 540.0

