ply
format ascii 1.0
comment made by @arthurmuchir
element vertex 718
property float x
property float y
property float z
end_header
-249.00139 -111.16133 634.0
-245.32642 -111.511986 636.0
-251.84882 -114.87839 630.0
-248.2159 -115.24308 632.0
-245.32642 -115.97247 636.0
-240.86594 -115.97247 636.0
-255.04689 -118.72873 627.0
-251.44904 -119.107445 629.0
-247.82315 -119.486176 631.0
-244.94067 -120.243614 635.0
-241.24466 -120.62233 637.0
-312.9069 -112.325554 572.0
-309.4353 -112.52193 573.0
-307.0157 -113.111046 576.0
-261.7376 -122.144226 622.0
-257.7891 -122.3406 623.0
-254.23334 -122.733345 625.0
-251.04929 -123.32246 628.0
-247.82315 -123.911575 631.0
-244.55495 -124.50071 634.0
-312.9069 -116.33717 572.0
-309.4353 -116.540565 573.0
-306.48267 -116.94734 575.0
-302.976 -117.150734 576.0
-264.81647 -125.896355 619.0
-260.896 -126.09974 620.0
-257.3753 -126.50651 622.0
-254.23334 -127.11667 625.0
-251.04929 -127.72684 628.0
-247.4304 -128.1336 630.0
-311.8128 -119.928 570.0
-308.35522 -120.1384 571.0
-305.41663 -120.5592 573.0
-302.976 -121.1904 576.0
-275.1471 -128.9752 613.0
-271.2898 -129.1856 614.0
-267.4184 -129.396 615.0
-264.38864 -130.0272 618.0
-260.47522 -130.2376 619.0
-257.3753 -130.8688 622.0
-254.23334 -131.5 625.0
-251.04929 -132.1312 628.0
-247.82315 -132.7624 631.0
-233.92271 -137.6016 654.0
-229.68668 -137.812 655.0
-310.71872 -123.49076 568.0
-307.27518 -123.70819 569.0
-304.8836 -124.36042 572.0
-302.45 -125.01266 575.0
-275.1471 -133.27437 613.0
-270.84793 -133.27437 613.0
-266.98358 -133.49179 614.0
-263.53302 -133.9266 616.0
-260.47522 -134.57884 619.0
-257.3753 -135.2311 622.0
-253.4198 -135.4485 623.0
-251.04929 -136.53557 628.0
-240.12251 -140.449 646.0
-236.32127 -140.88383 648.0
-233.20737 -141.7535 652.0
-229.68668 -142.40573 655.0
-225.78026 -142.84055 657.0
-309.0776 -126.801056 565.0
-305.6551 -127.02548 566.0
-303.28458 -127.69876 569.0
-300.872 -128.37204 572.0
-299.45535 -129.49417 577.0
-281.89392 -136.67584 609.0
-277.6228 -136.67584 609.0
-274.24942 -137.12468 611.0
-270.84793 -137.57355 613.0
-266.98358 -137.79796 614.0
-263.53302 -138.24683 616.0
-260.47522 -138.92009 619.0
-257.3753 -139.59337 622.0
-253.01303 -139.59337 622.0
-247.25508 -143.85748 641.0
-243.13826 -144.08192 642.0
-239.37912 -144.53076 644.0
-235.95659 -145.20404 647.0
-232.492 -145.87733 650.0
-228.98534 -146.5506 653.0
-225.78026 -147.44832 657.0
-309.0776 -130.76358 565.0
-305.11508 -130.76358 565.0
-302.75156 -131.4579 568.0
-300.346 -132.15224 571.0
-298.41736 -133.07799 575.0
-280.50528 -140.25262 606.0
-277.16693 -140.7155 608.0
-273.80054 -141.17839 610.0
-270.4061 -141.64127 612.0
-266.98358 -142.10416 614.0
-263.53302 -142.56702 616.0
-260.47522 -143.26135 619.0
-257.3753 -143.95567 622.0
-250.17963 -147.42728 637.0
-246.09787 -147.6587 638.0
-242.75954 -148.35303 641.0
-239.0074 -148.8159 643.0
-235.95659 -149.74167 647.0
-232.13432 -150.20456 649.0
-228.98534 -151.13031 653.0
-225.78026 -152.05608 657.0
-307.98352 -134.24924 563.0
-305.11508 -134.72614 565.0
-302.21854 -135.20305 567.0
-300.346 -136.15688 571.0
-298.41736 -137.11069 575.0
-283.81558 -144.02582 604.0
-280.50528 -144.50273 606.0
-277.16693 -144.97963 608.0
-273.35168 -145.2181 609.0
-269.96426 -145.695 611.0
-266.98358 -146.41037 614.0
-263.53302 -146.88727 616.0
-260.47522 -147.60263 619.0
-253.44783 -151.17943 634.0
-249.39415 -151.41788 635.0
-245.71214 -151.89479 637.0
-242.38081 -152.61014 640.0
-238.6357 -153.08707 642.0
-235.95659 -154.27931 647.0
-232.492 -154.99469 650.0
-230.38802 -156.66386 657.0
-307.4365 -137.95227 562.0
-305.11508 -138.68867 565.0
-302.21854 -139.17961 567.0
-300.872 -140.40694 572.0
-298.9363 -141.38881 576.0
-290.83594 -147.52547 601.0
-286.6209 -147.52547 601.0
-282.8758 -147.77094 602.0
-279.57953 -148.26187 604.0
-276.25522 -148.7528 606.0
-272.90283 -149.24374 608.0
-269.96426 -149.98015 611.0
-266.98358 -150.71654 614.0
-265.24426 -152.18935 620.0
-259.85803 -154.15308 628.0
-256.67398 -154.88947 631.0
-252.64832 -155.13495 632.0
-249.00139 -155.62587 634.0
-245.32642 -156.1168 636.0
-242.38081 -157.09868 640.0
-239.0074 -157.83508 643.0
-235.95659 -158.81694 647.0
-233.20737 -160.04428 652.0
-306.88947 -141.64128 561.0
-304.03503 -142.14624 563.0
-302.75156 -143.40865 568.0
-300.872 -144.41856 572.0
-290.35202 -151.488 600.0
-286.6209 -151.74048 601.0
-282.4059 -151.74048 601.0
-279.11667 -152.24545 603.0
-276.25522 -153.00288 606.0
-272.90283 -153.50784 608.0
-269.5224 -154.0128 610.0
-266.98358 -155.02274 614.0
-266.0999 -157.04257 622.0
-262.57922 -157.54753 624.0
-259.85803 -158.55745 628.0
-255.45367 -158.55745 628.0
-252.24857 -159.31488 631.0
-248.2159 -159.56737 632.0
-245.32642 -160.57729 636.0
-242.38081 -161.5872 640.0
-239.0074 -162.34465 643.0
-306.88947 -145.57576 561.0
-304.57504 -146.35425 564.0
-303.28458 -147.6517 569.0
-300.872 -148.43019 572.0
-297.7721 -155.17702 598.0
-293.08722 -154.91751 597.0
-289.3842 -155.17702 598.0
-286.144 -155.696 600.0
-282.4059 -155.95549 601.0
-278.65378 -156.21498 602.0
-275.34348 -156.73398 604.0
-272.90283 -157.77196 608.0
-270.84793 -159.06941 613.0
-270.4622 -161.40486 622.0
-266.0999 -161.40486 622.0
-262.15842 -161.66435 623.0
-258.61667 -162.18333 625.0
-255.45367 -162.9618 628.0
-251.84882 -163.4808 630.0
-248.2159 -163.99979 632.0
-245.32642 -165.03777 636.0
-242.38081 -166.07574 640.0
-307.4365 -149.77673 562.0
-305.11508 -150.57628 565.0
-302.75156 -151.3758 568.0
-299.44128 -158.03845 593.0
-296.2783 -158.57147 595.0
-292.59628 -158.83798 596.0
-288.90027 -159.10448 597.0
-286.144 -159.904 600.0
-282.4059 -160.1705 601.0
-279.57953 -160.97002 604.0
-277.16693 -162.03604 608.0
-274.24942 -162.83557 611.0
-273.05713 -164.70111 618.0
-269.59253 -165.23413 620.0
-265.6721 -165.50064 621.0
-261.7376 -165.76714 622.0
-257.7891 -166.03365 623.0
-255.04689 -167.09969 627.0
-252.24857 -168.16571 631.0
-249.00139 -168.96523 634.0
-245.32642 -169.49823 636.0
-227.93333 -173.22932 650.0
-224.06198 -173.76234 652.0
-220.49922 -174.56186 655.0
-308.53058 -154.26527 564.0
-305.11508 -154.5388 565.0
-301.68558 -154.81232 566.0
-304.6452 -160.55623 587.0
-302.06427 -161.3768 590.0
-298.9363 -161.92383 592.0
-294.78442 -161.92383 592.0
-291.6144 -162.47087 594.0
-288.41632 -163.01791 596.0
-285.6671 -163.83847 599.0
-282.4059 -164.38551 601.0
-280.50528 -165.75311 606.0
-277.16693 -166.30016 608.0
-275.59598 -167.94127 614.0
-272.17346 -168.48831 616.0
-268.72287 -169.03535 618.0
-264.81647 -169.30887 619.0
-261.3168 -169.85591 621.0
-257.7891 -170.40295 623.0
-254.23334 -170.95 625.0
-252.64832 -172.86464 632.0
-249.39415 -173.6852 635.0
-234.8625 -176.14687 644.0
-231.06128 -176.69392 646.0
-227.23201 -177.24095 648.0
-223.37468 -177.788 650.0
-220.16258 -178.88206 654.0
-215.90546 -179.1556 655.0
-308.53058 -158.2208 564.0
-305.11508 -158.50133 565.0
-310.74677 -163.55093 583.0
-307.71002 -164.11198 585.0
-305.16418 -164.95358 588.0
-301.0403 -164.95358 588.0
-297.42145 -165.23413 589.0
-294.2865 -165.79518 591.0
-291.12347 -166.35626 593.0
-287.9324 -166.91733 595.0
-284.7133 -167.4784 597.0
-281.936 -168.31999 600.0
-279.57953 -169.44212 604.0
-277.6228 -170.84479 609.0
-275.1471 -171.96693 613.0
-270.84793 -171.96693 613.0
-267.4184 -172.52798 615.0
-264.38864 -173.36958 618.0
-261.3168 -174.21118 621.0
-257.7891 -174.77226 623.0
-255.04689 -175.8944 627.0
-241.24466 -178.69972 637.0
-238.26399 -179.82185 641.0
-234.49782 -180.38292 643.0
-231.06128 -181.22452 646.0
-227.23201 -181.78558 648.0
-223.37468 -182.34666 650.0
-219.82594 -183.18826 653.0
-309.0776 -162.46385 565.0
-312.67545 -166.4895 579.0
-310.21375 -167.35216 582.0
-307.18402 -167.92723 584.0
-304.1262 -168.50233 586.0
-301.0403 -169.07742 588.0
-297.42145 -169.36497 589.0
-293.78854 -169.65251 590.0
-290.63254 -170.22762 592.0
-287.4485 -170.8027 594.0
-284.2364 -171.37779 596.0
-281.4661 -172.24043 599.0
-279.11667 -173.39062 603.0
-277.6228 -175.1159 609.0
-274.69824 -175.97855 612.0
-270.84793 -176.2661 613.0
-267.4184 -176.84119 615.0
-264.38864 -177.70383 618.0
-261.3168 -178.56647 621.0
-257.7891 -179.14157 623.0
-248.2159 -181.72948 632.0
-244.94067 -182.59212 635.0
-241.24466 -183.1672 637.0
-237.89227 -184.02986 640.0
-234.13312 -184.60493 642.0
-230.34592 -185.18004 644.0
-226.88135 -186.04268 647.0
-223.03102 -186.61778 649.0
-219.48929 -187.48041 652.0
-310.1717 -167.01553 567.0
-308.89526 -168.48833 572.0
-307.0157 -169.66656 576.0
-305.60602 -171.13937 581.0
-303.08823 -172.02304 584.0
-300.01642 -172.61218 586.0
-296.9165 -173.2013 588.0
-293.78854 -173.79042 590.0
-290.63254 -174.37953 592.0
-286.96457 -174.6741 593.0
-284.2364 -175.55779 596.0
-281.4661 -176.44145 599.0
-278.65378 -177.32513 602.0
-277.16693 -179.0925 608.0
-273.80054 -179.68161 610.0
-270.84793 -180.56529 613.0
-267.4184 -181.15442 615.0
-264.81647 -182.33264 619.0
-262.15842 -183.5109 623.0
-258.2029 -183.80545 624.0
-255.45367 -184.98369 628.0
-251.44904 -185.27824 629.0
-247.82315 -185.86737 631.0
-244.55495 -186.75105 634.0
-240.86594 -187.34018 636.0
-237.89227 -188.51842 640.0
-234.13312 -189.10753 642.0
-231.06128 -190.28578 646.0
-226.88135 -190.58034 647.0
-222.34372 -190.58034 647.0
-310.71872 -171.29366 568.0
-308.89526 -172.49995 572.0
-306.48267 -173.40468 575.0
-304.55402 -174.61096 579.0
-302.05026 -175.51569 582.0
-298.99246 -176.11884 584.0
-296.41153 -177.02356 587.0
-293.2906 -177.62671 589.0
-290.1416 -178.22984 591.0
-286.96457 -178.833 593.0
-283.7595 -179.43614 595.0
-280.99622 -180.34087 598.0
-278.1909 -181.24557 601.0
-276.25522 -182.75345 606.0
-273.35168 -183.65817 609.0
-270.84793 -184.86446 613.0
-267.85324 -185.76918 616.0
-266.0999 -187.57863 622.0
-262.15842 -187.8802 623.0
-258.61667 -188.48334 625.0
-255.04689 -189.08649 627.0
-251.44904 -189.68964 629.0
-247.82315 -190.29277 631.0
-243.78348 -190.59436 632.0
-240.86594 -191.80064 636.0
-237.89227 -193.00694 640.0
-234.13312 -193.61008 642.0
-231.06128 -194.81638 646.0
-309.62466 -174.66006 566.0
-308.35522 -176.20299 571.0
-305.41663 -176.82016 573.0
-304.55402 -178.67168 579.0
-301.53125 -179.28886 581.0
-298.99246 -180.21461 584.0
-296.41153 -181.14038 587.0
-293.78854 -182.06615 590.0
-290.63254 -182.6833 592.0
-286.96457 -182.9919 593.0
-283.7595 -183.60907 595.0
-280.99622 -184.53484 598.0
-278.1909 -185.46059 601.0
-276.25522 -187.00352 606.0
-273.35168 -187.92928 609.0
-270.84793 -189.16364 613.0
-268.72287 -190.70656 618.0
-265.6721 -191.63232 621.0
-261.7376 -191.9409 622.0
-257.7891 -192.2495 623.0
-254.23334 -192.86667 625.0
-251.04929 -193.79243 628.0
-247.4304 -194.4096 630.0
-244.55495 -195.64395 634.0
-240.86594 -196.26112 636.0
-237.14886 -196.8783 638.0
-234.49782 -198.42123 643.0
-309.0776 -178.314 565.0
-308.35522 -180.2076 571.0
-305.41663 -180.8388 573.0
-304.028 -182.4168 578.0
-301.53125 -183.3636 581.0
-299.50443 -184.626 585.0
-296.9165 -185.5728 588.0
-293.78854 -186.204 590.0
-290.63254 -186.8352 592.0
-286.96457 -187.1508 593.0
-283.7595 -187.782 595.0
-280.52634 -188.4132 597.0
-277.728 -189.36 600.0
-276.25522 -191.2536 606.0
-272.90283 -191.8848 608.0
-270.84793 -193.4628 613.0
-268.72287 -195.0408 618.0
-264.81647 -195.3564 619.0
-261.3168 -195.9876 621.0
-257.3753 -196.3032 622.0
-253.82658 -196.9344 624.0
-251.04929 -198.1968 628.0
-247.82315 -199.1436 631.0
-244.55495 -200.0904 634.0
-240.86594 -200.7216 636.0
-309.62466 -182.59914 566.0
-308.35522 -184.21222 571.0
-305.94965 -185.18005 574.0
-304.028 -186.4705 578.0
-301.53125 -187.43834 581.0
-299.50443 -188.7288 585.0
-296.9165 -189.69664 588.0
-293.2906 -190.01924 589.0
-290.1416 -190.66447 591.0
-286.96457 -191.30971 593.0
-284.2364 -192.27754 596.0
-280.52634 -192.60016 597.0
-277.26514 -193.24539 599.0
-274.8876 -194.53583 603.0
-272.90283 -196.14891 608.0
-269.96426 -197.11674 611.0
-266.54874 -197.76196 613.0
-264.38864 -199.37503 618.0
-260.896 -200.02026 620.0
-257.3753 -200.6655 622.0
-254.23334 -201.63333 625.0
-251.44904 -202.92378 629.0
-248.2159 -203.89162 632.0
-244.94067 -204.85945 635.0
-310.1717 -186.89832 567.0
-308.89526 -188.54645 572.0
-305.94965 -189.20569 574.0
-304.028 -190.52422 578.0
-302.05026 -191.84271 582.0
-299.50443 -192.83159 585.0
-296.9165 -193.82047 588.0
-293.2906 -194.1501 589.0
-289.65067 -194.47974 590.0
-286.96457 -195.46861 593.0
-284.2364 -196.45749 596.0
-280.99622 -197.11674 598.0
-277.728 -197.77599 600.0
-274.8876 -198.76488 603.0
-272.90283 -200.41301 608.0
-269.5224 -201.07227 610.0
-266.54874 -202.06114 613.0
-264.38864 -203.70927 618.0
-260.47522 -204.0389 619.0
-257.3753 -205.02777 622.0
-255.04689 -206.67592 627.0
-310.71872 -191.2115 568.0
-308.89526 -192.55807 572.0
-306.48267 -193.568 575.0
-304.55402 -194.91455 579.0
-302.05026 -195.92447 582.0
-300.52835 -197.60767 587.0
-296.9165 -197.9443 588.0
-293.2906 -198.28096 589.0
-290.1416 -198.95422 591.0
-286.96457 -199.6275 593.0
-284.2364 -200.63742 596.0
-280.52634 -200.97408 597.0
-277.728 -201.984 600.0
-274.8876 -202.99391 603.0
-272.45398 -204.34047 607.0
-269.5224 -205.35039 610.0
-266.54874 -206.3603 613.0
-264.38864 -208.0435 618.0
-260.896 -208.71678 620.0
-257.7891 -209.7267 623.0
-310.1717 -194.85144 567.0
-309.4353 -196.91338 573.0
-307.0157 -197.94434 576.0
-304.55402 -198.9753 579.0
-302.05026 -200.00624 582.0
-300.01642 -201.38087 586.0
-296.9165 -202.06818 588.0
-293.2906 -202.41182 589.0
-290.1416 -203.09914 591.0
-286.96457 -203.78644 593.0
-283.7595 -204.47374 595.0
-280.52634 -205.16104 597.0
-277.26514 -205.84837 599.0
-274.43173 -206.87932 602.0
-272.00513 -208.25394 606.0
-269.5224 -209.62854 610.0
-266.54874 -210.6595 613.0
-264.38864 -212.37778 618.0
-310.71872 -199.17867 568.0
-309.4353 -200.932 573.0
-307.54868 -202.33467 577.0
-305.08002 -203.38667 580.0
-302.05026 -204.08801 582.0
-299.50443 -205.14001 585.0
-296.41153 -205.84134 587.0
-292.79263 -206.19202 588.0
-289.65067 -206.89334 590.0
-286.48065 -207.59467 592.0
-282.80566 -207.94534 593.0
-280.05643 -208.99734 596.0
-277.26514 -210.04935 599.0
-273.9759 -210.75067 601.0
-272.00513 -212.50401 606.0
-269.0806 -213.55602 609.0
-266.54874 -214.95866 613.0
-262.24957 -214.95866 613.0
-251.79271 -217.06268 619.0
-247.45143 -217.06268 619.0
-235.94257 -218.46535 623.0
-231.94498 -218.816 624.0
-227.56863 -218.816 624.0
-223.55 -219.16669 625.0
-311.8128 -203.8776 570.0
-309.4353 -204.95065 573.0
-307.54868 -206.38136 577.0
-304.55402 -207.09673 579.0
-301.53125 -207.81209 581.0
-298.99246 -208.88513 584.0
-295.90656 -209.60048 586.0
-292.79263 -210.31584 588.0
-289.15973 -210.67352 589.0
-286.48065 -211.74657 592.0
-282.80566 -212.10425 593.0
-279.58655 -212.8196 595.0
-277.26514 -214.25034 599.0
-273.9759 -214.96568 601.0
-271.10742 -216.03873 604.0
-269.0806 -217.82713 609.0
-265.24426 -218.1848 610.0
-261.39395 -218.5425 611.0
-257.5296 -218.90016 612.0
-254.06503 -219.61552 614.0
-250.57239 -220.3309 616.0
-247.05168 -221.04623 618.0
-243.11018 -221.40393 619.0
-239.92615 -222.47696 622.0
-235.56386 -222.47696 622.0
-231.57327 -222.83464 623.0
-227.56863 -223.19234 624.0
-224.62305 -224.62303 628.0
-220.92001 -225.3384 630.0
-311.8128 -207.8752 570.0
-309.4353 -208.96928 573.0
-307.0157 -210.06337 576.0
-304.028 -210.79276 578.0
-301.01227 -211.52213 580.0
-298.99246 -212.98091 584.0
-295.4016 -213.3456 585.0
-292.29468 -214.07498 587.0
-289.15973 -214.80438 589.0
-285.99673 -215.53377 591.0
-282.80566 -216.26315 593.0
-278.64676 -216.26315 593.0
-276.33936 -217.72192 597.0
-273.52002 -218.816 600.0
-269.76086 -219.18071 601.0
-268.1969 -221.36885 607.0
-264.80945 -222.09824 609.0
-260.53833 -222.09824 609.0
-256.68802 -222.46294 610.0
-253.23746 -223.19234 612.0
-249.75885 -223.92172 614.0
-247.05168 -225.38046 618.0
-242.71745 -225.38046 618.0
-239.15468 -226.10986 620.0
-235.18513 -226.47456 621.0
-231.20157 -226.83925 622.0
-227.56863 -227.56863 624.0
-224.26537 -228.66273 627.0
-220.92001 -229.7568 630.0
-311.26578 -211.5011 569.0
-309.4353 -212.98792 573.0
-305.94965 -213.35962 574.0
-303.502 -214.47475 577.0
-300.4933 -215.21815 579.0
-297.45654 -215.96158 581.0
-294.89664 -217.07668 584.0
-291.2988 -217.4484 585.0
-288.1779 -218.19182 587.0
-284.54495 -218.56354 588.0
-281.85187 -219.67863 591.0
-278.64676 -220.42204 593.0
-275.87646 -221.53717 596.0
-273.06415 -222.65228 599.0
-269.76086 -223.39569 601.0
-266.42953 -224.13913 603.0
-263.9398 -225.62596 607.0
-260.53833 -226.36937 609.0
-256.68802 -226.74106 610.0
-253.65123 -227.85619 613.0
-249.75885 -228.22787 614.0
-246.25217 -228.9713 616.0
-242.71745 -229.71474 618.0
-238.76894 -230.08643 619.0
-235.18513 -230.82983 621.0
-231.20157 -231.20155 622.0
-227.56863 -231.94496 624.0
-224.26537 -233.06007 627.0
-220.92001 -234.1752 630.0
-310.1717 -214.73424 567.0
-308.35522 -216.2491 571.0
-305.41663 -217.00656 573.0
-302.976 -218.1427 576.0
-299.9743 -218.90016 578.0
-296.94455 -219.6576 580.0
-293.88672 -220.41504 582.0
-290.80084 -221.17247 584.0
-287.68695 -221.9299 586.0
-284.54495 -222.68736 588.0
-281.37494 -223.4448 590.0
-278.64676 -224.58096 593.0
-275.4136 -225.3384 595.0
-272.60828 -226.47456 598.0
-269.76086 -227.6107 601.0
-265.9877 -227.98944 602.0
-263.50497 -229.5043 606.0
-260.11053 -230.26176 608.0
-256.68802 -231.0192 610.0
-253.65123 -232.15536 613.0
-249.75885 -232.53407 614.0
-245.8524 -232.9128 615.0
-242.71745 -234.04897 618.0
-239.15468 -234.8064 620.0
-235.56386 -235.56383 622.0
-231.57327 -235.94257 623.0
-227.93333 -236.7 625.0
-224.62305 -237.83617 628.0
-309.62466 -218.32506 566.0
-306.73517 -219.09651 568.0
-304.35062 -220.25372 571.0
-301.398 -221.0252 573.0
-298.9363 -222.1824 576.0
-296.4326 -223.3396 579.0
-293.38174 -224.11105 581.0
-290.30292 -224.88252 583.0
-287.196 -225.654 585.0
-284.06107 -226.42546 587.0
-280.89804 -227.19691 589.0
-278.17685 -228.35411 592.0
-275.4136 -229.51132 595.0
-272.60828 -230.66852 598.0
-269.312 -231.44 600.0
-266.42953 -232.5972 603.0
-263.50497 -233.7544 606.0
-260.53833 -234.9116 609.0
-256.68802 -235.29732 610.0
-253.65123 -236.45451 613.0
-249.75885 -236.84026 614.0
-246.25217 -237.61171 616.0
-242.71745 -238.3832 618.0
-239.15468 -239.15466 620.0
-235.94257 -240.31186 623.0
-232.31668 -241.08331 625.0
-309.0776 -221.90186 565.0
-306.73517 -223.0801 568.0
-303.28458 -223.47284 569.0
-300.872 -224.65108 572.0
-298.41736 -225.82932 575.0
-295.40863 -226.61482 577.0
-292.8768 -227.79306 580.0
-289.80496 -228.57854 582.0
-287.196 -229.75677 585.0
-284.06107 -230.54228 587.0
-280.89804 -231.32776 589.0
-278.17685 -232.50603 592.0
-276.33936 -234.46974 597.0
-273.06415 -235.25525 599.0
-269.76086 -236.04073 601.0
-267.75507 -238.00447 606.0
-263.9398 -238.39722 607.0
-260.11053 -238.78995 608.0
-256.68802 -239.57545 610.0
-253.65123 -240.7537 613.0
-249.75885 -241.14645 614.0
-307.4365 -224.66513 562.0
-305.11508 -225.8644 565.0
-302.75156 -227.06369 568.0
-299.82 -227.8632 570.0
-297.3794 -229.0625 573.0
-294.89667 -230.26176 576.0
-292.37183 -231.46106 579.0
-289.80496 -232.66032 582.0
-287.196 -233.8596 585.0
-284.54495 -235.0589 588.0
-281.85187 -236.25816 591.0
-278.64676 -237.0577 593.0
-277.26514 -239.45627 599.0
-273.52002 -239.856 600.0
-269.76086 -240.25577 601.0
-267.75507 -242.25456 606.0
-307.4365 -228.60661 562.0
-305.11508 -229.82693 565.0
-301.68558 -230.23372 566.0
-299.294 -231.45403 569.0
-297.3794 -233.08113 573.0
-293.8727 -233.4879 574.0
-291.86688 -235.11499 578.0
-289.30704 -236.33531 581.0
-286.70508 -237.55562 584.0
-284.54495 -239.18272 588.0
-282.32877 -240.80981 592.0
-278.64676 -241.21658 593.0
-307.4365 -232.54813 562.0
-304.57504 -233.3757 564.0
-301.15256 -233.78946 565.0
-298.768 -235.03082 568.0
-297.3794 -237.09976 573.0
-294.89667 -238.34113 576.0
-293.38174 -240.41005 581.0
-291.2988 -242.0652 585.0
-288.66882 -243.30656 588.0
-285.0289 -243.72035 589.0
-280.89804 -243.72035 589.0

