ply
format ascii 1.0
comment made by @arthurmuchir
element vertex 884
property float x
property float y
property float z
end_header
-79.552246 -117.234886 597.0
-75.61777 -117.62764 599.0
-87.337036 -120.60829 593.0
-83.318405 -120.81168 594.0
-79.41899 -121.21846 596.0
-75.36529 -121.421844 597.0
-71.41676 -121.82861 599.0
-91.65024 -124.9776 594.0
-87.18976 -124.5568 592.0
-83.17814 -124.7672 593.0
-79.15249 -124.9776 594.0
-75.23905 -125.3984 596.0
-71.29755 -125.8192 598.0
-99.47713 -128.49127 591.0
-95.170944 -128.27386 590.0
-91.03306 -128.27386 590.0
-87.04248 -128.49127 591.0
-83.03787 -128.7087 592.0
-79.01923 -128.9261 593.0
-75.11281 -129.36093 595.0
-71.29755 -130.01317 598.0
-103.27134 -132.18729 589.0
-99.14049 -132.18729 589.0
-94.848335 -131.96288 588.0
-90.87877 -132.18729 589.0
-86.8952 -132.41173 590.0
-83.03787 -132.86058 592.0
-79.01923 -133.085 593.0
-107.21984 -136.0867 588.0
-103.096 -136.0867 588.0
-98.80385 -135.85527 587.0
-94.68703 -135.85527 587.0
-90.72447 -136.0867 588.0
-86.8952 -136.54959 590.0
-83.03787 -137.01247 592.0
-79.01923 -137.24391 593.0
-114.87841 -139.49521 585.0
-110.58624 -139.25676 584.0
-106.49045 -139.25676 584.0
-102.57001 -139.49521 585.0
-98.4672 -139.49521 585.0
-94.52572 -139.73367 586.0
-90.72447 -140.21057 588.0
-86.74792 -140.44902 589.0
-83.17814 -141.40283 593.0
-114.68204 -143.35254 584.0
-110.58624 -143.35254 584.0
-106.12576 -142.86162 582.0
-102.39467 -143.35254 584.0
-98.29889 -143.35254 584.0
-94.52572 -143.84348 586.0
-90.72447 -144.33441 588.0
-86.60064 -144.33441 588.0
-78.268814 -152.18935 620.0
-73.920525 -152.18935 620.0
-136.47948 -140.37888 556.0
-122.2424 -146.69089 581.0
-118.167656 -146.69089 581.0
-114.092926 -146.69089 581.0
-109.8288 -146.4384 580.0
-105.94341 -146.69089 581.0
-102.21934 -147.19585 583.0
-98.4672 -147.7008 585.0
-94.52572 -147.95328 586.0
-90.57018 -148.20576 587.0
-89.98808 -154.26529 611.0
-85.8432 -154.51776 612.0
-81.950806 -155.2752 615.0
-78.016335 -156.03265 618.0
-73.80131 -156.28513 619.0
-69.68448 -156.79008 621.0
-154.5388 -146.61372 565.0
-149.77676 -145.83527 562.0
-144.79727 -144.79729 558.0
-140.37889 -144.27829 556.0
-135.98854 -143.75931 554.0
-131.8647 -143.49982 553.0
-127.986336 -143.49982 553.0
-124.10794 -143.49982 553.0
-120.88181 -144.27829 556.0
-122.2424 -150.76562 581.0
-117.760895 -150.24664 579.0
-113.70017 -150.24664 579.0
-109.8288 -150.50613 580.0
-105.94341 -150.76562 581.0
-102.39467 -151.54411 584.0
-98.4672 -151.8036 585.0
-89.54624 -157.77196 608.0
-85.56267 -158.29092 610.0
-81.41779 -158.55043 611.0
-77.51137 -159.3289 614.0
-73.324394 -159.5884 615.0
-69.46005 -160.62637 619.0
-171.59525 -151.64229 569.0
-162.7514 -150.84277 566.0
-158.50134 -150.57628 565.0
-154.26529 -150.30975 564.0
-148.97725 -148.97722 559.0
-144.27829 -148.1777 556.0
-139.87392 -147.6447 554.0
-135.4976 -147.11168 552.0
-131.14934 -146.57867 550.0
-126.82913 -146.04564 548.0
-123.659096 -146.84518 551.0
-120.44698 -147.6447 554.0
-122.032005 -154.57387 580.0
-117.5575 -154.04085 578.0
-113.5038 -154.04085 578.0
-109.8288 -154.57387 580.0
-106.12576 -155.10689 582.0
-102.39467 -155.6399 584.0
-93.501755 -161.50304 606.0
-89.39896 -161.76955 607.0
-85.4224 -162.30255 609.0
-81.28454 -162.56908 610.0
-77.38513 -163.36859 613.0
-73.324394 -163.9016 615.0
-174.35147 -154.5388 565.0
-170.38895 -154.5388 565.0
-166.4264 -154.5388 565.0
-161.88878 -153.99174 563.0
-157.65974 -153.71823 562.0
-153.71825 -153.71823 562.0
-148.71074 -152.62415 558.0
-143.7593 -151.53008 554.0
-139.62144 -151.25655 553.0
-131.57014 -146.60672 536.0
-128.52635 -147.42728 539.0
-124.977615 -147.7008 540.0
-121.414825 -147.97432 541.0
-126.31715 -158.91512 581.0
-121.8216 -158.36807 579.0
-117.5575 -158.09456 578.0
-113.5038 -158.09456 578.0
-109.8288 -158.6416 580.0
-105.94341 -158.91512 581.0
-97.10662 -164.65904 602.0
-93.03887 -164.93256 603.0
-88.957115 -165.20607 604.0
-85.282135 -166.30016 608.0
-81.15129 -166.57367 609.0
-77.25889 -167.39424 612.0
-177.0516 -157.37918 561.0
-173.7343 -157.94026 563.0
-170.08739 -158.2208 564.0
-165.83728 -157.94026 563.0
-161.31367 -157.37918 561.0
-157.37921 -157.37918 561.0
-153.44473 -157.37918 561.0
-148.97725 -156.81813 559.0
-143.4998 -155.13493 553.0
-139.62144 -155.13493 553.0
-131.32468 -150.08533 535.0
-127.33409 -149.8048 534.0
-123.58897 -149.8048 534.0
-120.96597 -151.20746 539.0
-117.5575 -162.14825 578.0
-113.70017 -162.42879 579.0
-109.8288 -162.70934 580.0
-108.67862 -167.19786 596.0
-104.49867 -167.19786 596.0
-100.487045 -167.4784 597.0
-96.6227 -168.03946 599.0
-92.576 -168.31999 600.0
-88.66256 -168.88106 602.0
-85.0016 -170.00319 606.0
-81.15129 -170.84479 609.0
-178.32803 -155.56273 541.0
-174.85643 -155.85028 542.0
-177.0516 -161.31367 561.0
-167.25398 -155.85028 542.0
-163.45276 -155.85028 542.0
-159.94608 -156.13782 543.0
-156.13785 -156.13782 543.0
-152.61014 -156.42537 544.0
-148.79489 -156.42537 544.0
-145.24614 -156.71292 545.0
-141.94286 -157.28801 547.0
-139.36896 -158.72575 552.0
-128.37907 -150.38689 523.0
-124.949554 -150.67445 524.0
-122.43177 -152.11218 529.0
-120.292694 -154.125 536.0
-117.760895 -166.4895 579.0
-113.896545 -166.77705 580.0
-111.91175 -169.94006 591.0
-107.94923 -170.22762 592.0
-104.148 -170.8027 594.0
-99.98209 -170.8027 594.0
-96.13879 -171.37779 596.0
-92.42171 -172.24043 599.0
-88.66256 -173.10309 602.0
-84.72107 -173.67818 604.0
-181.44897 -158.76785 539.0
-177.99841 -159.06241 540.0
-174.53381 -159.35696 541.0
-170.42401 -159.06241 540.0
-166.63681 -159.06241 540.0
-162.84961 -159.06241 540.0
-159.06241 -159.06241 540.0
-155.8503 -159.65154 542.0
-152.04907 -159.65154 542.0
-148.52136 -159.94609 543.0
-144.97964 -160.24065 544.0
-141.42386 -160.53522 545.0
-131.79456 -153.76033 522.0
-127.88814 -153.46576 521.0
-124.23419 -153.46576 521.0
-121.50601 -154.64401 525.0
-119.79476 -173.49585 589.0
-115.6639 -173.49585 589.0
-111.34367 -173.2013 588.0
-107.40218 -173.49585 589.0
-103.622 -174.08498 591.0
-99.81377 -174.6741 593.0
-95.97748 -175.26321 595.0
-92.42171 -176.44145 599.0
-88.80984 -177.61969 603.0
-181.11234 -162.24646 538.0
-177.33914 -162.24646 538.0
-173.56598 -162.24646 538.0
-169.7928 -162.24646 538.0
-166.01962 -162.24646 538.0
-162.54805 -162.54803 539.0
-159.06241 -162.84961 540.0
-155.2752 -162.84961 540.0
-151.76854 -163.15118 541.0
-148.24785 -163.45276 542.0
-144.71313 -163.75433 543.0
-140.90488 -163.75433 543.0
-133.05696 -158.92915 527.0
-126.90627 -155.91342 517.0
-123.75729 -156.51657 519.0
-121.04314 -157.72285 523.0
-117.824 -158.32602 525.0
-123.50481 -177.02356 587.0
-119.38798 -177.02356 587.0
-115.27116 -177.02356 587.0
-111.34367 -177.32513 588.0
-107.21984 -177.32513 588.0
-103.44667 -177.92827 590.0
-99.64545 -178.53142 592.0
-95.81617 -179.13457 594.0
-184.54185 -165.71104 537.0
-180.1024 -165.09387 535.0
-176.02063 -164.78528 534.0
-172.27551 -164.78528 534.0
-168.84601 -165.09387 535.0
-165.40247 -165.40247 536.0
-162.24648 -166.01964 538.0
-159.06241 -166.6368 540.0
-155.2752 -166.6368 540.0
-151.76854 -166.94539 541.0
-147.97433 -166.94539 541.0
-144.44662 -167.25398 542.0
-140.64539 -167.25398 542.0
-130.53217 -159.5393 517.0
-126.41534 -158.92215 515.0
-122.803474 -158.92215 515.0
-120.580246 -160.77367 521.0
-117.59957 -161.69942 524.0
-118.9812 -180.5232 585.0
-114.87841 -180.5232 585.0
-110.7756 -180.5232 585.0
-107.21984 -181.44896 588.0
-103.44667 -182.06615 590.0
-99.64545 -182.6833 592.0
-187.60667 -168.846 535.0
-183.5109 -168.5304 534.0
-179.42914 -168.2148 533.0
-175.69101 -168.2148 533.0
-171.95291 -168.2148 533.0
-168.53041 -168.5304 534.0
-165.40247 -169.1616 536.0
-162.54805 -170.1084 539.0
-159.06241 -170.424 540.0
-155.2752 -170.424 540.0
-151.76854 -170.7396 541.0
-148.24785 -171.0552 542.0
-144.71313 -171.3708 543.0
-140.90488 -171.3708 543.0
-130.27968 -162.8496 516.0
-126.16987 -162.2184 514.0
-122.32657 -161.9028 513.0
-122.536964 -172.3176 546.0
-118.925095 -172.6332 547.0
-115.2992 -172.9488 548.0
-118.9812 -184.626 585.0
-114.485664 -183.9948 583.0
-110.58624 -184.3104 584.0
-107.03749 -185.2572 587.0
-103.44667 -186.204 590.0
-191.00111 -172.27551 534.0
-186.90533 -171.95291 533.0
-182.13628 -170.98506 530.0
-178.4192 -170.98506 530.0
-175.03177 -171.30768 531.0
-171.95291 -171.95291 533.0
-168.53041 -172.27551 534.0
-164.7853 -172.27551 534.0
-162.24648 -173.56596 538.0
-159.06241 -174.2112 540.0
-155.2752 -174.2112 540.0
-151.76854 -174.53381 541.0
-147.97433 -174.53381 541.0
-144.44662 -174.85643 542.0
-140.64539 -174.85643 542.0
-129.77472 -165.82324 514.0
-126.16987 -165.82324 514.0
-122.32657 -165.50064 513.0
-126.36625 -176.14688 546.0
-122.536964 -176.14688 546.0
-118.925095 -176.4695 547.0
-115.088806 -176.4695 547.0
-118.167656 -187.43834 581.0
-114.485664 -188.08356 583.0
-110.58624 -188.40619 584.0
-199.23479 -176.67989 536.0
-194.74623 -176.02063 534.0
-189.92807 -175.03175 531.0
-185.50267 -174.37251 529.0
-181.79263 -174.37251 529.0
-178.08258 -174.37251 529.0
-174.3725 -174.37251 529.0
-171.30768 -175.03175 531.0
-168.21481 -175.69101 533.0
-164.7853 -176.02063 534.0
-161.64331 -176.67989 536.0
-158.76784 -177.66876 539.0
-155.8503 -178.65765 542.0
-153.1712 -179.97615 546.0
-153.1712 -184.59093 560.0
-149.77676 -185.25018 562.0
-146.61374 -186.23906 565.0
-142.6512 -186.23906 565.0
-125.92441 -169.09846 513.0
-135.4415 -187.22794 568.0
-131.45793 -187.22794 568.0
-127.69878 -187.55757 569.0
-124.57784 -188.87607 573.0
-120.98 -189.53532 575.0
-117.760895 -190.85384 579.0
-114.092926 -191.51308 581.0
-198.11967 -179.42911 533.0
-193.28748 -178.41919 530.0
-189.21272 -178.08255 529.0
-184.80135 -177.40927 527.0
-181.10532 -177.40927 527.0
-177.40929 -177.40927 527.0
-174.3725 -178.08255 529.0
-170.98508 -178.41919 530.0
-168.21481 -179.42911 533.0
-164.7853 -179.76575 534.0
-161.64331 -180.43904 536.0
-159.06241 -181.78558 540.0
-156.13785 -182.7955 543.0
-155.97653 -187.17183 556.0
-152.62416 -187.84511 558.0
-149.77676 -189.19167 562.0
-146.35423 -189.86496 564.0
-142.6512 -190.20158 565.0
-138.93414 -190.53824 566.0
-135.4415 -191.2115 568.0
-131.68938 -191.54816 569.0
-128.37206 -192.55807 572.0
-124.57784 -192.8947 573.0
-120.98 -193.568 575.0
-117.5575 -194.57791 578.0
-205.98161 -183.5109 534.0
-201.47905 -182.8236 532.0
-196.63284 -181.79262 529.0
-192.55807 -181.44897 528.0
-188.49736 -181.10532 527.0
-184.45067 -180.76166 526.0
-180.76167 -180.76166 526.0
-177.40929 -181.10532 527.0
-174.04288 -181.44897 528.0
-170.98508 -182.13629 530.0
-167.8992 -182.8236 532.0
-164.7853 -183.5109 534.0
-162.24648 -184.88551 538.0
-159.06241 -185.57281 540.0
-159.30086 -190.38396 554.0
-156.25706 -191.41492 557.0
-152.89769 -192.10222 559.0
-149.51025 -192.78954 561.0
-145.83525 -193.1332 562.0
-142.6512 -194.16414 565.0
-138.68867 -194.16414 565.0
-134.9646 -194.5078 566.0
-131.45793 -195.19511 568.0
-127.69878 -195.53877 569.0
-124.36043 -196.56972 572.0
-120.559204 -196.91338 573.0
-116.74396 -197.25702 574.0
-248.44734 -191.11334 545.0
-245.52278 -191.81467 547.0
-241.6865 -191.81467 547.0
-210.90497 -188.30801 537.0
-205.98161 -187.25601 534.0
-200.7216 -185.85335 530.0
-196.63284 -185.50267 529.0
-191.82869 -184.45067 526.0
-188.13968 -184.45067 526.0
-184.45067 -184.45067 526.0
-180.76167 -184.45067 526.0
-177.07265 -184.45067 526.0
-173.71326 -184.80135 527.0
-170.66246 -185.50267 529.0
-167.8992 -186.55467 532.0
-164.7853 -187.25601 534.0
-162.54805 -189.00934 539.0
-159.06241 -189.36002 540.0
-159.30086 -194.26935 554.0
-156.25706 -195.32133 557.0
-152.89769 -196.02267 559.0
-149.24374 -196.37334 560.0
-145.57576 -196.72401 561.0
-141.89377 -197.07468 562.0
-138.4432 -197.77602 564.0
-134.72614 -198.12668 565.0
-130.76361 -198.12668 565.0
-127.249916 -198.82802 567.0
-123.70818 -199.52934 569.0
-120.138405 -200.23067 571.0
-116.33718 -200.58134 572.0
-113.30743 -202.33467 577.0
-109.26072 -202.33467 577.0
-95.170944 -206.89334 590.0
-87.04248 -207.24402 591.0
-79.01923 -207.94534 593.0
-75.23905 -208.99734 596.0
-71.29755 -209.69867 598.0
-246.25217 -190.28577 532.0
-242.52107 -190.28577 532.0
-243.27852 -193.86256 542.0
-238.59361 -193.1472 540.0
-219.25085 -192.78954 539.0
-215.07088 -192.43185 538.0
-210.11948 -191.3588 535.0
-205.59587 -190.64345 533.0
-200.3429 -189.21274 529.0
-195.88943 -188.49736 527.0
-191.82869 -188.13968 526.0
-187.78201 -187.782 525.0
-184.1 -187.782 525.0
-180.418 -187.782 525.0
-177.07265 -188.13968 526.0
-173.71326 -188.49736 527.0
-170.98508 -189.5704 530.0
-168.21481 -190.64345 533.0
-165.40247 -191.71648 536.0
-162.84961 -193.1472 540.0
-162.30257 -197.08168 551.0
-159.30086 -198.15472 554.0
-155.97653 -198.87009 556.0
-152.35065 -199.22777 557.0
-148.71074 -199.58545 558.0
-145.05676 -199.94313 559.0
-141.38881 -200.3008 560.0
-137.7068 -200.65848 561.0
-133.77232 -200.65848 561.0
-130.30074 -201.37384 563.0
-126.80106 -202.0892 565.0
-123.27336 -202.80457 567.0
-119.928 -203.8776 570.0
-116.33718 -204.59297 572.0
-112.7183 -205.30833 574.0
-109.26072 -206.38136 577.0
-105.21403 -206.38136 577.0
-101.86867 -207.81209 581.0
-97.96225 -208.16977 582.0
-94.2031 -208.88513 584.0
-90.57018 -209.95816 587.0
-86.60064 -210.31584 588.0
-82.61707 -210.67352 589.0
-78.88598 -211.74657 592.0
-75.11281 -212.8196 595.0
-71.29755 -213.89265 598.0
-67.327995 -214.608 600.0
-256.75815 -190.73462 523.0
-254.05801 -191.464 525.0
-250.85292 -191.82869 526.0
-246.69402 -191.464 525.0
-243.01201 -191.464 525.0
-240.6976 -192.55809 528.0
-238.34114 -193.65216 531.0
-238.59361 -196.9344 540.0
-234.37157 -196.5697 539.0
-230.59138 -196.5697 539.0
-227.23201 -196.9344 540.0
-222.61723 -196.20502 538.0
-218.4373 -195.84032 537.0
-213.47183 -194.74625 534.0
-209.33398 -194.38156 533.0
-204.43867 -193.28748 530.0
-200.3429 -192.92278 529.0
-195.88943 -192.19339 527.0
-191.82869 -191.82869 526.0
-187.78201 -191.464 525.0
-184.1 -191.464 525.0
-180.418 -191.464 525.0
-177.40929 -192.19339 527.0
-174.04288 -192.55809 528.0
-171.6303 -194.01686 532.0
-168.53041 -194.74625 534.0
-166.01962 -196.20502 538.0
-165.2622 -199.85196 548.0
-162.30257 -200.94603 551.0
-159.01332 -201.67542 553.0
-155.41547 -202.0401 554.0
-151.53009 -202.0401 554.0
-148.17772 -202.7695 556.0
-144.53778 -203.13419 557.0
-140.63136 -203.13419 557.0
-136.9704 -203.49889 558.0
-133.29543 -203.86357 559.0
-129.83784 -204.59297 561.0
-126.127785 -204.95766 562.0
-122.83854 -206.05173 565.0
-119.5072 -207.14581 568.0
-116.13379 -208.2399 571.0
-112.521935 -208.96928 573.0
-108.69264 -209.33398 574.0
-104.849335 -209.69867 575.0
-101.167336 -210.42805 577.0
-97.45729 -211.15746 579.0
-93.88049 -212.25151 582.0
-90.2616 -213.3456 585.0
-86.45336 -214.07498 587.0
-82.61707 -214.80438 589.0
-78.61947 -215.16907 590.0
-74.86034 -216.26315 593.0
-70.93986 -216.99254 595.0
-67.327995 -218.816 600.0
-266.73813 -193.65918 521.0
-263.08417 -193.65918 521.0
-259.92816 -194.03088 522.0
-256.75815 -194.40259 523.0
-252.60625 -194.03088 522.0
-248.9453 -194.03088 522.0
-245.28432 -194.03088 522.0
-241.62337 -194.03088 522.0
-239.33 -195.146 525.0
-236.54572 -195.8894 527.0
-237.70995 -199.9782 538.0
-233.50192 -199.60648 537.0
-229.73576 -199.60648 537.0
-225.128 -198.86307 535.0
-220.9621 -198.49135 534.0
-217.21698 -198.49135 534.0
-213.07208 -198.11964 533.0
-208.54848 -197.37624 531.0
-204.43867 -197.00453 530.0
-200.3429 -196.63283 529.0
-195.51772 -195.5177 526.0
-191.464 -195.146 525.0
-187.78201 -195.146 525.0
-184.1 -195.146 525.0
-180.76167 -195.5177 526.0
-177.40929 -195.8894 527.0
-174.3725 -196.63283 529.0
-172.27551 -198.49135 534.0
-169.4772 -199.60648 537.0
-168.48834 -202.95183 546.0
-165.2622 -203.69525 548.0
-161.71342 -204.06696 549.0
-158.4382 -204.81038 551.0
-154.8544 -205.18208 552.0
-151.25656 -205.55379 553.0
-147.64471 -205.92549 554.0
-143.7593 -205.92549 554.0
-139.87392 -205.92549 554.0
-136.47948 -206.6689 556.0
-132.81851 -207.04062 557.0
-129.37497 -207.78403 559.0
-126.127785 -208.89914 562.0
-122.83854 -210.01427 565.0
-119.0864 -210.38597 566.0
-115.72703 -211.5011 569.0
-112.12918 -212.2445 571.0
-108.31392 -212.61621 572.0
-104.48464 -212.98792 573.0
-100.992004 -214.10304 576.0
-97.28897 -214.84645 578.0
-93.71919 -215.96158 581.0
-90.10731 -217.07668 584.0
-86.30608 -217.8201 586.0
-82.47681 -218.56354 588.0
-78.61947 -219.30695 590.0
-74.86034 -220.42204 593.0
-280.27383 -196.55566 519.0
-275.62402 -198.44926 524.0
-270.39206 -197.31311 521.0
-265.71417 -196.55566 519.0
-262.07425 -196.55566 519.0
-258.93228 -196.9344 520.0
-254.7944 -196.55566 519.0
-250.67056 -196.17696 518.0
-247.51459 -196.55566 519.0
-242.93486 -195.79823 517.0
-239.30896 -195.79823 517.0
-237.05067 -196.9344 520.0
-240.5854 -202.99391 536.0
-236.82625 -202.99391 536.0
-232.63228 -202.6152 535.0
-228.45232 -202.23647 534.0
-224.70721 -202.23647 534.0
-220.5483 -201.85776 533.0
-216.81021 -201.85776 533.0
-212.67232 -201.47903 532.0
-208.15575 -200.7216 530.0
-204.05295 -200.34286 529.0
-199.96416 -199.96416 528.0
-195.51772 -199.20671 526.0
-191.464 -198.828 525.0
-187.78201 -198.828 525.0
-184.45067 -199.20671 526.0
-181.10532 -199.58543 527.0
-177.74594 -199.96416 528.0
-175.03177 -201.10031 531.0
-172.27551 -202.23647 534.0
-172.31761 -206.78111 546.0
-168.48834 -206.78111 546.0
-164.96063 -207.15984 547.0
-161.12431 -207.15984 547.0
-157.57558 -207.53856 548.0
-154.29333 -208.296 550.0
-150.98305 -209.05344 552.0
-147.1117 -209.05344 552.0
-143.24033 -209.05344 552.0
-139.87392 -209.81087 554.0
-136.23401 -210.1896 555.0
-132.58006 -210.56831 556.0
-129.14354 -211.32576 558.0
-125.90336 -212.46191 561.0
-122.62112 -213.59807 564.0
-118.87601 -213.9768 565.0
-115.523636 -215.11295 568.0
-111.932816 -215.8704 570.0
-108.31392 -216.62784 572.0
-104.666985 -217.38527 574.0
-100.992004 -218.1427 576.0
-97.45729 -219.27887 579.0
-93.55788 -219.6576 580.0
-90.10731 -221.17247 584.0
-86.60064 -222.68736 588.0
-82.61707 -223.06607 589.0
-281.1786 -198.26692 514.0
-279.1938 -199.42413 517.0
-275.5679 -199.42413 517.0
-271.41602 -199.03839 516.0
-267.79715 -199.03839 516.0
-264.17825 -199.03839 516.0
-260.55936 -199.03839 516.0
-256.9405 -199.03839 516.0
-252.33974 -198.26692 514.0
-247.76706 -197.49545 512.0
-244.17622 -197.49545 512.0
-241.05528 -197.88118 513.0
-237.92032 -198.26692 514.0
-234.77135 -198.65266 515.0
-239.23883 -205.59586 533.0
-235.50073 -205.59586 533.0
-231.76262 -205.59586 533.0
-227.5967 -205.21013 532.0
-223.8656 -205.21013 532.0
-219.30695 -204.43866 530.0
-215.58987 -204.43866 530.0
-211.8728 -204.43866 530.0
-207.76299 -204.05293 529.0
-204.05295 -204.05293 529.0
-199.58545 -203.28146 527.0
-195.88943 -203.28146 527.0
-191.464 -202.51 525.0
-188.13968 -202.89574 526.0
-184.80135 -203.28146 527.0
-181.44896 -203.66719 528.0
-178.4192 -204.43866 530.0
-176.02063 -205.98158 534.0
-173.56598 -207.52454 538.0
-171.6864 -209.83893 544.0
-167.87115 -209.83893 544.0
-164.05591 -209.83893 544.0
-160.82976 -210.61038 546.0
-157.00047 -210.61038 546.0
-153.73227 -211.38185 548.0
-150.436 -212.15334 550.0
-146.57867 -212.15334 550.0
-143.24033 -212.92479 552.0
-139.62144 -213.31053 553.0
-135.98854 -213.69626 554.0
-132.81851 -214.85345 557.0
-129.14354 -215.23918 558.0
-125.454506 -215.62492 559.0
-122.186295 -216.78212 562.0
-119.0864 -218.32506 566.0
-115.523636 -219.09651 568.0
-111.932816 -219.868 570.0
-108.31392 -220.63947 572.0
-104.849335 -221.79666 575.0
-101.167336 -222.56812 577.0
-97.6256 -223.72531 580.0
-279.53745 -200.69354 511.0
-275.95364 -200.69354 511.0
-273.43585 -201.47902 513.0
-270.364 -201.87178 514.0
-266.75916 -201.87178 514.0
-261.61838 -200.69354 511.0
-258.03458 -200.69354 511.0
-254.45074 -200.69354 511.0
-250.86694 -200.69354 511.0
-246.79921 -200.30078 510.0
-243.69933 -200.69354 511.0
-240.1155 -200.69354 511.0
-237.45746 -201.47902 513.0
-234.31548 -201.87178 514.0
-237.89227 -208.15572 530.0
-234.1752 -208.15572 530.0
-230.45815 -208.15572 530.0
-226.74107 -208.15572 530.0
-222.60321 -207.76297 529.0
-218.89316 -207.76297 529.0
-215.18312 -207.76297 529.0
-211.47304 -207.76297 529.0
-207.76299 -207.76297 529.0
-203.6672 -207.37022 528.0
-199.58545 -206.97748 527.0
-195.88943 -206.97748 527.0
-192.19339 -206.97748 527.0
-188.49736 -206.97748 527.0
-185.15201 -207.37022 528.0
-181.79263 -207.76297 529.0
-179.42914 -209.33397 533.0
-177.00952 -210.90495 537.0
-174.21121 -212.08319 540.0
-171.0552 -212.86868 542.0
-167.25398 -212.86868 542.0
-163.75433 -213.26143 543.0
-160.24063 -213.65417 544.0
-156.71294 -214.04692 545.0
-153.1712 -214.43967 546.0
-149.61545 -214.83241 547.0
-146.04567 -215.22516 548.0
-142.72133 -216.01067 550.0
-139.36896 -216.79614 552.0
-135.98854 -217.58165 554.0
-132.58006 -218.36713 556.0
-129.14354 -219.15263 558.0
-125.67893 -219.93811 560.0
-122.40371 -221.11635 563.0
-277.3493 -202.67833 507.0
-274.33356 -203.0781 508.0
-270.77078 -203.0781 508.0
-266.682 -202.67833 507.0
-262.60727 -202.27856 506.0
-259.05853 -202.27856 506.0
-256.0147 -202.67833 507.0
-252.45897 -202.67833 507.0
-248.90321 -202.67833 507.0
-245.34746 -202.67833 507.0
-241.7917 -202.67833 507.0
-239.1757 -203.47784 509.0
-236.53168 -204.27736 511.0
-233.8596 -205.07689 513.0
-230.71063 -205.47665 514.0
-233.73338 -211.47305 529.0
-230.0233 -211.47305 529.0
-226.31325 -211.47305 529.0
-222.60321 -211.47305 529.0
-218.89316 -211.47305 529.0
-214.77634 -211.0733 528.0
-210.67352 -210.67352 527.0
-206.9775 -210.67352 527.0
-203.28148 -210.67352 527.0
-199.58545 -210.67352 527.0
-195.88943 -210.67352 527.0
-192.19339 -210.67352 527.0
-188.85506 -211.0733 528.0
-185.50267 -211.47305 529.0
-182.82358 -212.67233 532.0
-180.1024 -213.87161 535.0
-177.00952 -214.67113 537.0
-174.21121 -215.8704 540.0
-170.42401 -215.8704 540.0
-166.9454 -216.27017 541.0
-163.45276 -216.66994 542.0
-159.94608 -217.0697 543.0
-156.42538 -217.46947 544.0
-152.89067 -217.8692 545.0
-149.34193 -218.26897 546.0
-145.77916 -218.66873 547.0
-142.72133 -219.868 550.0
-139.62144 -221.06729 553.0
-135.98854 -221.46706 554.0
-132.58006 -222.26657 556.0
-129.14354 -223.0661 558.0
-125.90336 -224.26537 561.0
-275.16113 -204.607 503.0
-271.63342 -204.607 503.0
-268.1057 -204.607 503.0
-265.104 -205.01376 504.0
-261.5693 -205.01376 504.0
-258.03458 -205.01376 504.0
-254.49983 -205.01376 504.0
-250.96512 -205.01376 504.0
-247.92134 -205.42055 505.0
-245.34746 -206.23409 507.0
-241.7917 -206.23409 507.0
-238.23592 -206.23409 507.0
-236.0688 -207.4544 510.0
-232.94788 -207.86118 511.0
-229.81291 -208.26796 512.0
-232.40785 -213.96278 526.0
-228.71883 -213.96278 526.0
-225.45763 -214.36955 527.0
-221.76161 -214.36955 527.0
-218.06558 -214.36955 527.0
-214.36957 -214.36955 527.0
-210.67352 -214.36955 527.0
-206.9775 -214.36955 527.0
-203.28148 -214.36955 527.0
-199.58545 -214.36955 527.0
-196.26114 -214.77634 528.0
-192.92276 -215.18309 529.0
-189.21272 -215.18309 529.0
-185.85333 -215.58989 530.0
-183.5109 -217.21696 534.0
-180.1024 -217.62375 535.0
-177.00952 -218.4373 537.0
-173.56598 -218.84407 538.0
-170.42401 -219.6576 540.0
-166.63681 -219.6576 540.0
-163.15118 -220.06438 541.0
-159.65152 -220.47116 542.0
-156.13785 -220.87793 543.0
-152.61014 -221.28471 544.0
-149.34193 -222.09824 546.0
-145.77916 -222.505 547.0
-142.72133 -223.72534 550.0
-139.87392 -225.35242 554.0
-136.23401 -225.7592 555.0
-272.42593 -206.06577 498.0
-269.4733 -206.47955 499.0
-265.97366 -206.47955 499.0
-262.474 -206.47955 499.0
-260.5313 -207.7209 502.0
-257.01062 -207.7209 502.0
-253.99487 -208.13469 503.0
-250.96512 -208.54848 504.0
-247.4304 -208.54848 504.0
-243.41176 -208.13469 503.0
-239.88408 -208.13469 503.0
-236.82623 -208.54848 504.0
-233.29152 -208.54848 504.0
-230.66855 -209.37605 506.0
-228.0175 -210.20364 508.0
-231.966 -217.238 525.0
-228.28401 -217.238 525.0
-224.602 -217.238 525.0
-221.3408 -217.6518 526.0
-217.65181 -217.6518 526.0
-214.36957 -218.06558 527.0
-210.67352 -218.06558 527.0
-207.37025 -218.47937 528.0
-203.6672 -218.47937 528.0
-200.3429 -218.89316 529.0
-196.63284 -218.89316 529.0
-192.92276 -218.89316 529.0
-189.5704 -219.30695 530.0
-186.90533 -220.54831 533.0
-183.5109 -220.9621 534.0
-180.1024 -221.37585 535.0
-176.6799 -221.78964 536.0
-173.24336 -222.20343 537.0
-170.10841 -223.031 539.0
-166.63681 -223.4448 540.0
-162.84961 -223.4448 540.0
-159.06241 -223.4448 540.0
-156.13785 -224.68617 543.0
-152.61014 -225.09996 544.0
-149.34193 -225.92754 546.0
-146.04567 -226.75511 548.0
-142.98083 -227.99644 551.0

