ply
format ascii 1.0
comment made by @arthurmuchir
element vertex 1013
property float x
property float y
property float z
end_header
-136.2831 -107.079575 694.0
-131.41583 -107.079575 694.0
-145.3864 -111.462906 691.0
-140.94698 -111.785515 693.0
-136.08673 -111.785515 693.0
-131.41583 -111.94682 694.0
-149.36296 -115.63583 687.0
-144.5448 -115.63583 687.0
-139.93004 -115.80415 688.0
-135.49762 -116.140785 690.0
-131.22647 -116.64575 693.0
-148.71072 -119.927986 684.0
-144.33441 -120.278656 686.0
-139.72665 -120.45399 687.0
-135.49762 -120.97999 690.0
-131.22647 -121.50599 693.0
-211.62032 -117.066536 642.0
-207.44038 -117.24889 643.0
-203.87761 -117.79593 646.0
-153.05899 -124.36041 682.0
-148.49332 -124.54275 683.0
-143.9136 -124.725105 684.0
-139.72665 -125.27214 687.0
-135.49762 -125.81919 690.0
-120.01217 -130.01315 713.0
-115.011665 -130.01315 713.0
-110.16543 -130.19551 714.0
-105.59976 -130.74254 717.0
-211.2907 -121.379776 641.0
-206.47253 -121.190414 640.0
-201.98401 -121.190414 640.0
-198.11266 -121.56913 642.0
-193.61009 -121.56913 642.0
-162.86363 -129.3329 683.0
-157.37923 -128.76482 680.0
-152.61012 -128.76482 680.0
-148.2759 -129.14352 682.0
-143.7032 -129.3329 683.0
-139.72665 -130.09033 687.0
-123.96067 -133.87753 707.0
-119.17057 -134.0669 708.0
-114.52775 -134.44562 710.0
-110.01114 -135.0137 713.0
-105.452484 -135.58177 716.0
-209.97218 -125.08982 637.0
-205.5047 -125.08982 637.0
-201.0372 -125.08982 637.0
-197.49547 -125.67894 640.0
-193.30852 -125.87532 641.0
-161.67136 -133.14113 678.0
-156.91634 -133.14113 678.0
-152.3857 -133.33751 679.0
-147.84106 -133.53387 680.0
-143.7032 -134.123 683.0
-132.552 -137.46135 700.0
-127.82502 -137.65771 701.0
-123.43467 -138.24684 704.0
-118.83392 -138.63957 706.0
-114.20513 -139.03233 708.0
-109.54826 -139.42506 710.0
-209.31294 -129.15054 635.0
-204.85947 -129.15054 635.0
-200.7216 -129.35393 636.0
-196.56972 -129.55731 637.0
-192.40381 -129.7607 638.0
-164.95361 -136.67584 672.0
-160.95601 -137.286 675.0
-156.45345 -137.4894 676.0
-152.16127 -137.89616 678.0
-148.2759 -138.7097 682.0
-143.7032 -138.9131 683.0
-137.0686 -141.9639 698.0
-132.552 -142.37067 700.0
-127.64266 -142.37067 700.0
-122.90867 -142.57407 701.0
-118.83392 -143.59099 706.0
-114.20513 -143.99777 708.0
-208.9833 -133.3936 634.0
-204.53685 -133.3936 634.0
-200.09041 -133.3936 634.0
-196.26114 -133.8144 636.0
-192.40381 -134.2352 638.0
-169.66656 -141.3888 672.0
-164.95361 -141.3888 672.0
-160.24065 -141.3888 672.0
-155.99059 -141.8096 674.0
-152.16127 -142.6512 678.0
-148.2759 -143.4928 682.0
-146.01761 -146.0176 694.0
-141.55713 -146.4384 696.0
-136.87222 -146.6488 697.0
-131.98392 -146.6488 697.0
-127.27797 -146.8592 698.0
-122.73334 -147.28 700.0
-118.32897 -147.9112 703.0
-208.32405 -137.40523 632.0
-203.56902 -137.1878 631.0
-199.45921 -137.40523 632.0
-195.95255 -138.05746 635.0
-192.10223 -138.4923 637.0
-174.12003 -145.88434 671.0
-169.41408 -145.88434 671.0
-164.46268 -145.66693 670.0
-160.0022 -145.88434 671.0
-155.99059 -146.53659 674.0
-152.16127 -147.40623 678.0
-150.01521 -150.0152 690.0
-145.3864 -150.2326 691.0
-140.94698 -150.66743 693.0
-136.2831 -150.88484 694.0
-131.41583 -150.88484 694.0
-127.27797 -151.7545 698.0
-122.73334 -152.18933 700.0
-207.99443 -141.61322 631.0
-203.56902 -141.61322 631.0
-199.1436 -141.61322 631.0
-195.02678 -141.83765 632.0
-192.10223 -142.95978 637.0
-178.5595 -150.36586 670.0
-173.86052 -150.36586 670.0
-168.65665 -149.91699 668.0
-163.97174 -149.91699 668.0
-160.0022 -150.59029 671.0
-156.22202 -151.48799 675.0
-152.3857 -152.3857 679.0
-149.58038 -154.40555 688.0
-144.7552 -154.40555 688.0
-140.3368 -154.85439 690.0
-136.08673 -155.52766 693.0
-131.41583 -155.75209 694.0
-127.27797 -156.6498 698.0
-212.7565 -146.27007 632.0
-207.99443 -146.03862 631.0
-203.56902 -146.03862 631.0
-199.1436 -146.03862 631.0
-195.64397 -146.73296 634.0
-192.10223 -147.42728 637.0
-182.71136 -154.6019 668.0
-177.49345 -154.13902 666.0
-172.82256 -154.13902 666.0
-168.40416 -154.37047 667.0
-163.97174 -154.6019 668.0
-160.0022 -155.29622 671.0
-155.5277 -155.52766 672.0
-154.40555 -159.2307 688.0
-149.58038 -159.2307 688.0
-144.5448 -158.99927 687.0
-139.93004 -159.2307 688.0
-136.08673 -160.38791 693.0
-131.41583 -160.61935 694.0
-109.70255 -164.55382 711.0
-104.71608 -164.55382 711.0
-100.01014 -165.01671 713.0
-212.7565 -150.70251 632.0
-207.66481 -150.22562 630.0
-203.24641 -150.22562 630.0
-199.1436 -150.46407 631.0
-195.64397 -151.17943 634.0
-192.10223 -151.89479 637.0
-186.27414 -158.33302 664.0
-182.16434 -158.80994 666.0
-176.96045 -158.33302 664.0
-172.30356 -158.33302 664.0
-168.40416 -159.04839 667.0
-164.46268 -159.76375 670.0
-160.0022 -160.0022 671.0
-158.07353 -162.86365 683.0
-153.50783 -163.1021 684.0
-148.49332 -162.86365 683.0
-144.33441 -163.579 686.0
-139.72665 -163.81746 687.0
-135.49762 -164.5328 690.0
-131.41583 -165.48662 694.0
-118.83392 -168.34807 706.0
-114.04382 -168.58652 707.0
-109.23968 -168.82498 708.0
-104.568794 -169.30188 710.0
-100.01014 -170.01724 713.0
-95.009636 -170.01724 713.0
-217.18892 -155.13495 632.0
-212.41985 -154.88947 631.0
-207.99443 -154.88947 631.0
-203.24641 -154.64401 630.0
-199.45921 -155.13495 632.0
-195.95255 -155.87134 635.0
-192.10223 -156.36227 637.0
-190.64345 -162.74442 663.0
-185.43254 -162.25348 661.0
-180.79674 -162.25348 661.0
-176.42743 -162.49895 662.0
-172.04408 -162.74442 663.0
-168.15167 -163.48082 666.0
-164.46268 -164.46268 670.0
-160.24065 -164.95361 672.0
-158.07353 -167.65375 683.0
-153.2834 -167.65375 683.0
-148.49332 -167.65375 683.0
-143.9136 -167.89922 684.0
-139.72665 -168.63562 687.0
-134.9085 -168.63562 687.0
-122.90867 -172.07214 701.0
-118.32897 -172.56308 703.0
-113.55991 -172.80855 704.0
-108.93108 -173.29948 706.0
-104.27424 -173.79042 708.0
-99.72961 -174.52681 711.0
-216.5016 -159.0624 630.0
-212.0832 -159.0624 630.0
-207.66481 -159.0624 630.0
-203.24641 -159.0624 630.0
-200.09041 -160.07233 634.0
-196.26114 -160.57729 636.0
-189.49326 -166.38432 659.0
-184.59094 -166.13185 658.0
-179.97617 -166.13185 658.0
-175.62791 -166.38432 659.0
-171.78459 -167.14177 662.0
-167.64671 -167.64673 664.0
-163.97174 -168.65665 668.0
-160.24065 -169.66656 672.0
-157.14778 -171.43393 679.0
-152.61012 -171.68642 680.0
-148.2759 -172.19136 682.0
-143.9136 -172.69633 684.0
-139.72665 -173.45377 687.0
-127.27797 -176.23105 698.0
-122.73334 -176.73601 700.0
-117.82401 -176.73601 700.0
-113.3986 -177.49345 703.0
-108.93108 -178.25089 706.0
-104.12696 -178.50337 707.0
-220.92001 -163.4808 630.0
-216.15796 -163.22131 629.0
-211.74658 -163.22131 629.0
-207.66481 -163.4808 630.0
-203.89163 -163.99979 632.0
-200.406 -164.77827 635.0
-196.56972 -165.29726 637.0
-196.62582 -169.18967 652.0
-192.64223 -169.70865 654.0
-188.34308 -169.96814 655.0
-184.31041 -170.48712 657.0
-179.70265 -170.48712 657.0
-175.62791 -171.0061 659.0
-171.5251 -171.5251 661.0
-167.64671 -172.30357 664.0
-163.72627 -173.08206 667.0
-160.0022 -174.12003 671.0
-156.45345 -175.4175 676.0
-152.3857 -176.19598 679.0
-148.2759 -176.97446 682.0
-143.9136 -177.49345 684.0
-140.54019 -179.30989 691.0
-136.2831 -180.08838 694.0
-131.79456 -180.60736 696.0
-127.09563 -180.86687 697.0
-122.38267 -181.12636 698.0
-117.82401 -181.64534 700.0
-113.07599 -181.90483 701.0
-108.93108 -183.2023 706.0
-225.33841 -167.8992 630.0
-220.56934 -167.63269 629.0
-215.8143 -167.3662 628.0
-211.40994 -167.3662 628.0
-207.66481 -167.8992 630.0
-203.89163 -168.4322 632.0
-200.7216 -169.49823 636.0
-197.49547 -170.56425 640.0
-195.41954 -172.69632 648.0
-192.05312 -173.76234 652.0
-187.76799 -174.02884 653.0
-183.74934 -174.56186 655.0
-179.70265 -175.09488 657.0
-175.3614 -175.36139 658.0
-171.5251 -176.1609 661.0
-167.39426 -176.69392 663.0
-163.4808 -177.49344 666.0
-159.76373 -178.55946 670.0
-155.99059 -179.62549 674.0
-151.71243 -180.15851 676.0
-148.2759 -181.75754 682.0
-144.7552 -183.35658 688.0
-140.54019 -184.15611 691.0
-135.69398 -184.15611 691.0
-131.22647 -184.68912 693.0
-126.913284 -185.48863 696.0
-122.38267 -186.02165 698.0
-117.82401 -186.55466 700.0
-113.3986 -187.35419 703.0
-225.33841 -172.3176 630.0
-220.21867 -171.77055 628.0
-215.8143 -171.77055 628.0
-211.40994 -171.77055 628.0
-207.66481 -172.3176 630.0
-204.53685 -173.41167 634.0
-201.0372 -174.23224 637.0
-197.80408 -175.32632 641.0
-194.21324 -176.14687 644.0
-190.87488 -177.24095 648.0
-187.48042 -178.33504 652.0
-183.74934 -179.1556 655.0
-179.70265 -179.70264 657.0
-175.3614 -179.97615 658.0
-171.5251 -180.79672 661.0
-167.14177 -181.07024 662.0
-163.4808 -182.16432 666.0
-159.76373 -183.25839 670.0
-155.5277 -183.80544 672.0
-151.71243 -184.89952 676.0
-148.2759 -186.54063 682.0
-144.7552 -188.18175 688.0
-139.93004 -188.18175 688.0
-135.10487 -188.18175 688.0
-130.84775 -189.00232 691.0
-126.548584 -189.82288 694.0
-122.38267 -190.91695 698.0
-230.1215 -177.01653 631.0
-224.62305 -176.17493 628.0
-219.86801 -175.8944 627.0
-215.8143 -176.17493 628.0
-211.40994 -176.17493 628.0
-207.66481 -176.736 630.0
-204.53685 -177.85812 634.0
-201.0372 -178.69972 637.0
-197.80408 -179.82185 641.0
-193.91167 -180.38292 643.0
-190.87488 -181.78558 648.0
-187.48042 -182.90771 652.0
-183.46881 -183.46878 654.0
-179.70265 -184.3104 657.0
-175.0949 -184.3104 657.0
-171.5251 -185.43251 661.0
-167.39426 -185.99359 663.0
-163.4808 -186.83519 666.0
-159.76373 -187.95732 670.0
-155.5277 -188.51839 672.0
-151.71243 -189.64052 676.0
-148.2759 -191.32372 682.0
-144.33441 -192.44586 686.0
-139.72665 -192.7264 687.0
-134.9085 -192.7264 687.0
-130.6584 -193.568 690.0
-126.548584 -194.69011 694.0
-228.66272 -180.29173 627.0
-223.55 -179.71666 625.0
-218.81601 -179.42911 624.0
-215.47066 -180.29173 627.0
-211.40994 -180.5793 628.0
-207.66481 -181.15439 630.0
-204.53685 -182.30458 634.0
-200.7216 -182.87967 636.0
-197.49547 -184.02986 640.0
-194.21324 -185.18004 644.0
-190.58032 -186.04268 647.0
-186.90533 -186.90532 650.0
-183.46881 -188.05551 654.0
-179.70265 -188.91814 657.0
-175.3614 -189.20569 658.0
-171.5251 -190.06833 661.0
-167.39426 -190.64342 663.0
-163.4808 -191.50607 666.0
-159.28683 -192.08116 668.0
-155.29625 -192.9438 671.0
-151.26357 -193.80643 674.0
-147.84106 -195.53172 680.0
-143.7032 -196.39435 683.0
-139.52325 -197.257 686.0
-134.9085 -197.54454 687.0
-130.27968 -197.83209 688.0
-227.93333 -184.1 625.0
-223.19232 -183.80545 624.0
-218.46535 -183.5109 623.0
-214.4397 -183.80545 624.0
-211.07329 -184.68913 627.0
-207.66481 -185.57281 630.0
-204.53685 -186.75105 634.0
-200.7216 -187.34018 636.0
-197.49547 -188.51842 640.0
-194.21324 -189.69666 644.0
-190.87488 -190.8749 648.0
-186.90533 -191.46402 650.0
-183.74934 -192.93681 655.0
-179.70265 -193.52592 657.0
-175.62791 -194.11505 659.0
-171.78459 -194.99873 662.0
-167.39426 -195.29329 663.0
-163.4808 -196.17697 666.0
-159.04839 -196.47153 667.0
-155.29625 -197.64978 671.0
-150.81471 -197.94434 672.0
-147.62366 -200.00624 679.0
-143.4928 -200.88992 682.0
-139.11649 -201.47905 684.0
-233.43181 -189.38806 628.0
-227.56863 -188.18176 624.0
-222.83466 -187.8802 623.0
-218.46535 -187.8802 623.0
-214.4397 -188.18176 624.0
-211.07329 -189.08649 627.0
-207.33517 -189.68964 629.0
-204.53685 -191.19751 634.0
-201.0372 -192.10222 637.0
-197.49547 -193.00694 640.0
-194.81639 -194.81638 646.0
-190.87488 -195.41953 648.0
-187.48042 -196.62582 652.0
-183.74934 -197.53055 655.0
-179.70265 -198.13368 657.0
-176.16092 -199.33998 661.0
-171.78459 -199.64156 662.0
-167.39426 -199.94313 663.0
-163.4808 -200.84785 666.0
-159.04839 -201.14943 667.0
-155.29625 -202.35571 671.0
-150.81471 -202.6573 672.0
-147.62366 -204.76831 679.0
-143.4928 -205.67302 682.0
-102.21232 -209.2919 694.0
-97.906136 -210.4982 698.0
-93.27734 -211.10135 700.0
-232.31668 -192.86667 625.0
-227.56863 -192.55809 624.0
-222.83466 -192.2495 623.0
-218.11467 -191.9409 622.0
-214.4397 -192.55809 624.0
-211.07329 -193.48384 627.0
-207.33517 -194.10101 629.0
-204.53685 -195.64395 634.0
-201.0372 -196.5697 637.0
-197.80408 -197.80406 641.0
-194.81639 -199.34698 646.0
-191.46399 -200.58134 650.0
-187.76799 -201.5071 653.0
-183.74934 -202.12427 655.0
-179.97617 -203.05003 658.0
-176.16092 -203.97578 661.0
-171.78459 -204.28438 662.0
-167.14177 -204.28438 662.0
-162.98987 -204.90155 664.0
-159.04839 -205.8273 667.0
-155.06482 -206.75307 670.0
-150.81471 -207.37025 672.0
-146.9714 -208.60458 676.0
-120.98 -212.9248 690.0
-116.140816 -212.9248 690.0
-111.46292 -213.23338 691.0
-106.616684 -213.23338 691.0
-102.06504 -213.85057 693.0
-97.34507 -214.15915 694.0
-92.74432 -214.77634 696.0
-238.21489 -198.5124 629.0
-231.94498 -196.9344 624.0
-227.20395 -196.6188 623.0
-222.47696 -196.3032 622.0
-218.11467 -196.3032 622.0
-214.09602 -196.6188 623.0
-210.40001 -197.25 625.0
-207.33517 -198.5124 629.0
-204.53685 -200.0904 634.0
-201.0372 -201.0372 637.0
-198.11266 -202.6152 642.0
-195.11797 -204.1932 647.0
-191.46399 -205.14 650.0
-188.05553 -206.4024 654.0
-183.74934 -206.718 655.0
-179.97617 -207.6648 658.0
-176.16092 -208.6116 661.0
-171.5251 -208.6116 661.0
-167.14177 -208.9272 662.0
-162.98987 -209.5584 664.0
-158.80994 -210.1896 666.0
-154.3705 -210.5052 667.0
-150.81471 -212.0832 672.0
-146.53659 -212.7144 674.0
-142.6512 -213.9768 678.0
-138.70972 -215.2392 682.0
-133.92662 -215.2392 682.0
-129.33287 -215.5548 683.0
-124.72512 -215.8704 684.0
-120.27867 -216.5016 686.0
-115.63585 -216.8172 687.0
-110.979004 -217.1328 688.0
-106.462395 -217.764 690.0
-101.770485 -218.0796 691.0
-97.2048 -218.7108 693.0
-92.47782 -219.0264 694.0
-269.95023 -203.56902 631.0
-265.5248 -203.56902 631.0
-261.0994 -203.56902 631.0
-259.11462 -205.5047 637.0
-245.71214 -205.5047 637.0
-238.21489 -202.92378 629.0
-231.94498 -201.31071 624.0
-227.20395 -200.98811 623.0
-222.47696 -200.6655 622.0
-218.11467 -200.6655 622.0
-214.09602 -200.98811 623.0
-211.07329 -202.27855 627.0
-207.33517 -202.92378 629.0
-204.85947 -204.85945 635.0
-201.35281 -205.8273 638.0
-198.42123 -207.44037 643.0
-195.41954 -209.05344 648.0
-192.05312 -210.34389 652.0
-188.05553 -210.98912 654.0
-183.74934 -211.31172 655.0
-179.70265 -211.95695 657.0
-175.3614 -212.27957 658.0
-171.5251 -213.2474 661.0
-166.88928 -213.2474 661.0
-162.7444 -213.89264 663.0
-158.33302 -214.21524 664.0
-154.3705 -215.18309 667.0
-150.5903 -216.47356 671.0
-146.53659 -217.44139 674.0
-142.23041 -218.08661 676.0
-138.09956 -219.05444 679.0
-133.53387 -219.37706 680.0
-129.14352 -220.02228 682.0
-124.54277 -220.3449 683.0
-119.928 -220.66751 684.0
-115.46753 -221.31276 686.0
-110.81769 -221.63536 687.0
-106.462395 -222.6032 690.0
-101.770485 -222.92581 691.0
-96.92427 -222.92581 691.0
-271.76666 -206.01666 625.0
-268.23895 -206.67592 627.0
-263.8416 -206.67592 627.0
-258.61667 -206.01666 625.0
-255.86044 -207.33516 629.0
-254.24736 -209.64255 636.0
-250.17963 -209.97218 637.0
-244.94067 -209.31293 635.0
-237.83617 -207.00554 628.0
-231.57327 -205.3574 623.0
-226.83925 -205.02777 622.0
-222.47696 -205.02777 622.0
-218.46535 -205.3574 623.0
-214.4397 -205.68704 624.0
-211.07329 -206.67592 627.0
-207.33517 -207.33516 629.0
-204.53685 -208.98329 634.0
-201.98401 -210.96106 640.0
-198.72983 -212.27957 644.0
-195.72112 -213.92769 649.0
-192.05312 -214.91658 652.0
-187.76799 -215.2462 653.0
-183.74934 -215.90546 655.0
-179.15561 -215.90546 655.0
-175.0949 -216.5647 657.0
-171.0061 -217.22398 659.0
-166.88928 -217.88322 661.0
-162.49893 -218.21284 662.0
-157.85611 -218.21284 662.0
-154.13905 -219.53134 666.0
-149.917 -220.19061 668.0
-146.10176 -221.50911 672.0
-142.23041 -222.82762 676.0
-137.4894 -222.82762 676.0
-133.14113 -223.48688 678.0
-128.7648 -224.14612 680.0
-124.36043 -224.80539 682.0
-119.928 -225.46463 684.0
-115.46753 -226.12389 686.0
-110.81769 -226.4535 687.0
-106.462395 -227.4424 690.0
-281.43106 -211.07327 627.0
-275.7082 -210.06335 624.0
-270.897 -209.7267 623.0
-265.6721 -209.05342 621.0
-261.3168 -209.05342 621.0
-256.96155 -209.05342 621.0
-253.01303 -209.39008 622.0
-253.44783 -213.42975 634.0
-248.2159 -212.75647 632.0
-243.39774 -212.41982 631.0
-237.83617 -211.40991 628.0
-231.94498 -210.06335 624.0
-227.20395 -209.7267 623.0
-222.83466 -209.7267 623.0
-218.81601 -210.06335 624.0
-214.4397 -210.06335 624.0
-211.07329 -211.07327 627.0
-207.66481 -212.08319 630.0
-204.53685 -213.42975 634.0
-202.6152 -216.12286 642.0
-199.347 -217.46944 646.0
-195.72112 -218.47934 649.0
-191.46399 -218.81598 650.0
-187.48042 -219.48927 652.0
-183.18828 -219.8259 653.0
-179.15561 -220.49918 655.0
-175.0949 -221.17247 657.0
-170.74661 -221.50911 658.0
-166.88928 -222.51903 661.0
-162.49893 -222.85567 662.0
-157.85611 -222.85567 662.0
-153.67618 -223.52895 664.0
-149.69258 -224.53886 667.0
-146.10176 -226.22208 672.0
-142.02 -227.23198 675.0
-137.4894 -227.56863 676.0
-133.14113 -228.2419 678.0
-128.7648 -228.91518 680.0
-124.36043 -229.58847 682.0
-293.21344 -214.4397 624.0
-286.52274 -212.72142 619.0
-282.63733 -213.06508 620.0
-278.28906 -213.06508 620.0
-273.9408 -213.06508 620.0
-268.72287 -212.37778 618.0
-263.53302 -211.69048 616.0
-259.2128 -211.69048 616.0
-255.72017 -212.37778 618.0
-251.38594 -212.37778 618.0
-251.44904 -216.15796 629.0
-247.4304 -216.50163 630.0
-242.62628 -216.15796 629.0
-237.83617 -215.8143 628.0
-233.06009 -215.47066 627.0
-227.56863 -214.4397 624.0
-222.83466 -214.09604 623.0
-218.81601 -214.4397 624.0
-214.78334 -214.78334 625.0
-211.07329 -215.47066 627.0
-207.99443 -216.84528 631.0
-205.18208 -218.56354 636.0
-202.6152 -220.62546 642.0
-199.347 -222.00008 646.0
-195.11797 -222.34372 647.0
-191.16943 -223.03104 649.0
-186.90533 -223.37468 650.0
-182.90775 -224.06198 652.0
-178.60857 -224.40565 653.0
-174.56189 -225.09294 655.0
-170.48712 -225.78026 657.0
-166.13185 -226.1239 658.0
-162.25348 -227.15488 661.0
-157.85611 -227.49852 662.0
-153.67618 -228.18584 664.0
-149.69258 -229.21678 667.0
-146.10176 -230.93506 672.0
-142.02 -231.96602 675.0
-137.4894 -232.30968 676.0
-132.74838 -232.30968 676.0
-308.229 -217.06268 619.0
-305.36053 -218.11469 622.0
-297.6108 -215.66 615.0
-295.20526 -217.06268 619.0
-290.86398 -217.06268 619.0
-286.05984 -216.712 618.0
-281.72562 -216.712 618.0
-276.49368 -216.01068 616.0
-271.7316 -215.66 615.0
-266.98358 -215.30934 614.0
-262.24957 -214.95866 613.0
-257.9504 -214.95866 613.0
-254.06503 -215.30934 614.0
-250.1656 -215.66 615.0
-249.85 -219.16669 625.0
-246.64491 -220.21869 628.0
-242.24054 -220.21869 628.0
-237.83617 -220.21869 628.0
-233.43181 -220.21869 628.0
-228.66272 -219.868 627.0
-223.55 -219.16669 625.0
-219.16667 -219.16669 625.0
-215.47066 -219.868 627.0
-211.40994 -220.21869 628.0
-209.31294 -222.67334 635.0
-205.82732 -223.72534 638.0
-202.6152 -225.128 642.0
-199.347 -226.53069 646.0
-195.11797 -226.88135 647.0
-190.87488 -227.232 648.0
-186.61778 -227.58269 649.0
-182.34668 -227.93335 650.0
-178.33505 -228.63469 652.0
-174.02887 -228.98534 653.0
-169.96812 -229.68669 655.0
-165.87936 -230.388 657.0
-162.25348 -231.79068 661.0
-157.85611 -232.14134 662.0
-153.67618 -232.84268 664.0
-149.917 -234.24535 668.0
-146.10176 -235.648 672.0
-314.35165 -219.61552 614.0
-309.03552 -218.90016 612.0
-304.24542 -218.5425 611.0
-300.4512 -218.90016 612.0
-296.64297 -219.25783 613.0
-292.8207 -219.61552 614.0
-288.5145 -219.61552 614.0
-283.74545 -219.25783 613.0
-278.99042 -218.90016 612.0
-274.69824 -218.90016 612.0
-269.96426 -218.5425 611.0
-265.6791 -218.5425 611.0
-261.82178 -218.90016 612.0
-257.9504 -219.25783 613.0
-254.06503 -219.61552 614.0
-249.75885 -219.61552 614.0
-247.05168 -221.04623 618.0
-245.46667 -223.55 625.0
-242.24054 -224.62303 628.0
-237.83617 -224.62303 628.0
-233.43181 -224.62303 628.0
-228.66272 -224.26537 627.0
-224.26537 -224.26537 627.0
-219.86801 -224.26537 627.0
-216.15796 -224.98073 629.0
-212.0832 -225.3384 630.0
-209.31294 -227.1268 635.0
-205.5047 -227.84216 637.0
-202.2996 -229.27289 641.0
-198.42123 -229.98824 643.0
-194.81639 -231.0613 646.0
-190.58032 -231.41896 647.0
-186.0427 -231.41896 647.0
-182.06615 -232.13432 649.0
-177.78801 -232.492 650.0
-173.76236 -233.20737 652.0
-169.96812 -234.2804 655.0
-165.87936 -234.99576 657.0
-162.25348 -236.4265 661.0
-157.85611 -236.78416 662.0
-325.13815 -222.46294 610.0
-320.86002 -222.46294 610.0
-316.0629 -222.09824 609.0
-311.2798 -221.73355 608.0
-307.52063 -222.09824 609.0
-303.2495 -222.09824 609.0
-299.46933 -222.46294 610.0
-295.6751 -222.82762 611.0
-291.86688 -223.19234 612.0
-285.69516 -221.73355 608.0
-281.43106 -221.73355 608.0
-277.6228 -222.09824 609.0
-272.45398 -221.36885 607.0
-268.63873 -221.73355 608.0
-264.80945 -222.09824 609.0
-260.96616 -222.46294 610.0
-257.5296 -223.19234 612.0
-252.82367 -222.82762 611.0
-248.53851 -222.82762 611.0
-245.05287 -223.557 613.0
-244.68118 -227.20395 623.0
-241.08334 -227.93335 625.0
-237.45746 -228.66273 627.0
-233.06009 -228.66273 627.0
-228.66272 -228.66273 627.0
-224.26537 -228.66273 627.0
-220.21867 -229.0274 628.0
-216.5016 -229.7568 630.0
-212.41985 -230.1215 631.0
-209.31294 -231.58026 635.0
-205.5047 -232.30965 637.0
-202.2996 -233.76842 641.0
-198.11266 -234.13313 642.0
-194.21324 -234.86252 644.0
-190.28577 -235.5919 646.0
-186.0427 -235.95659 647.0
-181.78561 -236.32127 648.0
-177.5145 -236.68597 649.0
-173.76236 -237.78004 652.0
-169.96812 -238.87415 655.0
-166.13185 -239.96822 658.0
-162.25348 -241.0623 661.0
-318.74197 -222.2806 598.0
-315.6 -223.024 600.0
-312.43 -223.76741 602.0
-309.2319 -224.51082 604.0
-304.99585 -224.51082 604.0
-300.26184 -224.13913 603.0
-296.0328 -224.13913 603.0
-291.3199 -223.76741 602.0
-288.05164 -224.51082 604.0
-284.75537 -225.25424 606.0
-280.50528 -225.25424 606.0
-276.25522 -225.25424 606.0
-272.45398 -225.62596 607.0
-268.1969 -225.62596 607.0
-263.9398 -225.62596 607.0
-259.6827 -225.62596 607.0
-255.0048 -225.25424 606.0
-250.75475 -225.25424 606.0
-247.3182 -225.99765 608.0
-243.45384 -226.36937 609.0
-245.46667 -232.31667 625.0
-241.08334 -232.31667 625.0
-237.45746 -233.06007 627.0
-233.06009 -233.06007 627.0
-229.0274 -233.4318 628.0
-224.62305 -233.4318 628.0
-220.92001 -234.1752 630.0
-216.84528 -234.54689 631.0
-213.42978 -235.66202 634.0
-209.64256 -236.40544 636.0
-205.5047 -236.77716 637.0
-201.98401 -237.89226 640.0
-197.80408 -238.26398 641.0
-193.91167 -239.00739 643.0
-190.28577 -240.1225 646.0
-186.0427 -240.49422 647.0
-181.50507 -240.49422 647.0
-177.5145 -241.23763 649.0
-174.02887 -242.72444 653.0
-170.48712 -244.21127 657.0
-328.7711 -227.6107 601.0
-322.39594 -226.09584 597.0
-317.67596 -225.7171 596.0
-314.548 -226.47456 598.0
-310.87302 -226.85327 599.0
-305.13614 -225.7171 596.0
-300.95615 -225.7171 596.0
-297.27414 -226.09584 597.0
-293.57816 -226.47456 598.0
-289.8681 -226.85327 599.0
-286.6209 -227.6107 601.0
-282.8758 -227.98944 602.0
-279.11667 -228.36816 603.0
-276.25522 -229.5043 606.0
-271.10742 -228.74687 604.0
-266.42953 -228.36816 603.0
-262.20047 -228.36816 603.0
-258.39926 -228.74687 604.0
-254.16321 -228.74687 604.0
-249.92717 -228.74687 604.0
-246.50465 -229.5043 606.0
-242.65433 -229.88304 607.0
-238.00447 -229.5043 606.0
-241.85481 -237.45743 627.0
-237.45746 -237.45743 627.0
-233.80351 -238.21487 629.0
-230.1215 -238.9723 631.0
-225.69608 -238.9723 631.0
-221.27068 -238.9723 631.0
-217.18892 -239.35103 632.0
-213.7664 -240.4872 635.0
-209.64256 -240.8659 636.0
-205.5047 -241.24463 637.0
-201.98401 -242.3808 640.0
-197.80408 -242.7595 641.0
-193.91167 -243.51697 643.0
-190.28577 -244.6531 646.0
-186.0427 -245.03183 647.0
-181.78561 -245.41057 648.0
-324.3947 -228.73985 593.0
-319.15576 -227.9684 591.0
-313.41183 -226.8112 588.0
-309.81403 -227.19691 589.0
-307.75912 -228.73985 593.0
-303.6002 -228.73985 593.0
-299.44128 -228.73985 593.0
-296.2783 -229.51132 595.0
-293.08722 -230.2828 597.0
-289.3842 -230.66852 598.0
-285.6671 -231.05426 599.0
-281.4661 -231.05426 599.0
-277.26514 -231.05426 599.0
-273.06415 -231.05426 599.0
-269.312 -231.44 600.0
-265.54587 -231.82571 601.0
-261.33084 -231.82571 601.0
-257.97147 -232.5972 603.0
-254.16321 -232.98291 604.0
-249.92717 -232.98291 604.0
-245.69112 -232.98291 604.0
-242.25456 -233.7544 606.0
-237.219 -232.98291 604.0
-242.24054 -242.24051 628.0
-238.21489 -242.62625 629.0
-234.54692 -243.39772 631.0
-231.21556 -244.55492 634.0
-227.12682 -244.94066 635.0
-223.024 -245.3264 636.0
-218.56354 -245.3264 636.0
-214.10306 -245.3264 636.0
-209.97218 -245.71211 637.0
-205.82732 -246.09785 638.0
-202.2996 -247.25507 641.0
-198.11266 -247.6408 642.0
-193.91167 -248.02652 643.0
-190.28577 -249.18372 646.0
-186.0427 -249.56946 647.0
-322.20657 -231.32776 589.0
-317.5357 -230.93503 588.0
-312.8788 -230.54228 587.0
-308.76202 -230.54228 587.0
-305.68317 -231.32776 589.0
-302.57626 -232.11327 591.0
-298.9363 -232.50603 592.0
-295.28238 -232.89876 593.0
-292.10535 -233.68427 595.0
-287.9324 -233.68427 595.0
-284.2364 -234.07701 596.0
-280.05643 -234.07701 596.0
-276.80225 -234.86249 598.0
-272.60828 -234.86249 598.0
-268.86316 -235.25525 599.0
-265.54587 -236.04073 601.0
-261.33084 -236.04073 601.0
-257.1158 -236.04073 601.0
-253.32161 -236.43349 602.0
-249.09958 -236.43349 602.0
-245.28433 -236.82623 603.0
-241.05528 -236.82623 603.0
-238.00447 -238.00447 606.0
-243.01201 -247.43037 630.0
-238.97234 -247.82314 631.0
-235.66205 -249.00136 634.0
-231.94496 -249.78687 636.0
-227.84216 -250.17963 637.0
-223.37468 -250.17963 637.0
-218.56354 -249.78687 636.0
-214.10306 -249.78687 636.0
-210.3018 -250.57236 638.0
-206.79515 -251.75058 641.0
-202.2996 -251.75058 641.0
-198.42123 -252.53609 643.0
-194.21324 -252.92885 644.0
-320.0184 -233.8596 585.0
-315.91562 -233.8596 585.0
-311.2798 -233.45985 584.0
-307.71002 -233.8596 585.0
-305.16418 -235.0589 588.0
-301.5523 -235.45866 589.0
-297.92642 -235.8584 590.0
-293.78854 -235.8584 590.0
-290.1416 -236.25816 591.0
-286.96457 -237.0577 593.0
-283.2826 -237.45746 594.0
-279.11664 -237.45746 594.0
-276.33936 -238.65672 597.0
-272.1524 -238.65672 597.0
-267.96545 -238.65672 597.0
-265.104 -239.856 600.0
-260.896 -239.856 600.0
-257.1158 -240.25577 601.0
-252.9008 -240.25577 601.0
-248.272 -239.856 600.0
-244.47078 -240.25577 601.0
-241.05528 -241.0553 603.0
-237.219 -241.45506 604.0
-234.14014 -242.65433 607.0
-240.10849 -253.44786 634.0
-236.40546 -254.24736 636.0
-232.30966 -254.64713 637.0
-229.27287 -256.24615 641.0
-224.77734 -256.24615 641.0
-219.25082 -255.04689 638.0
-214.77634 -255.04689 638.0
-211.2907 -256.24615 641.0
-206.79515 -256.24615 641.0
-318.3773 -236.7421 582.0
-314.29553 -236.7421 582.0
-310.74677 -237.14888 583.0
-307.18402 -237.55562 584.0
-303.6072 -237.9624 585.0
-300.01642 -238.36917 586.0
-295.90656 -238.36917 586.0
-292.29468 -238.77596 587.0
-289.15973 -239.58951 589.0
-285.99673 -240.40306 591.0
-282.32877 -240.80981 592.0
-279.11664 -241.62337 594.0
-275.87646 -242.43692 596.0
-272.1524 -242.84369 597.0
-267.96545 -242.84369 597.0
-264.22034 -243.25047 598.0
-260.02634 -243.25047 598.0
-256.2602 -243.65723 599.0
-252.48001 -244.064 600.0
-248.6858 -244.47078 601.0
-244.47078 -244.47078 601.0
-241.05528 -245.28433 603.0
-237.219 -245.6911 604.0
-233.75441 -246.50465 606.0
-240.86594 -258.70786 636.0
-237.14886 -259.5214 638.0
-233.76843 -260.74173 641.0
-229.63057 -261.1485 642.0
-225.128 -261.1485 642.0
-220.62546 -261.1485 642.0
-215.78625 -260.74173 641.0
-211.62032 -261.1485 642.0
-313.45392 -237.09976 573.0
-313.21548 -239.99626 580.0
-309.14774 -239.99626 580.0
-305.60602 -240.41005 581.0
-301.53125 -240.41005 581.0
-297.45654 -240.41005 581.0
-294.3917 -241.23763 583.0
-291.79675 -242.47899 586.0
-288.66882 -243.30656 588.0
-285.51282 -244.13414 590.0
-281.85187 -244.54793 591.0
-278.64676 -245.3755 593.0
-275.4136 -246.20306 595.0
-271.24066 -246.20306 595.0
-267.5166 -246.61685 596.0
-263.7785 -247.03064 597.0
-260.02634 -247.44443 598.0
-256.2602 -247.85822 599.0
-252.48001 -248.272 600.0
-248.6858 -248.68579 601.0
-245.69112 -249.92715 604.0
-241.45503 -249.92715 604.0
-237.219 -249.92715 604.0
-233.75441 -250.75473 606.0
-230.26176 -251.5823 608.0
-226.74107 -252.40985 610.0

