ply
format ascii 1.0
comment made by @arthurmuchir
element vertex 559
property float x
property float y
property float z
end_header
-213.2474 -162.25348 661.0
-220.16258 -165.12193 654.0
-215.90546 -165.37442 655.0
-212.27959 -166.13185 658.0
-207.34921 -165.87936 657.0
-224.06198 -169.18967 652.0
-219.82594 -169.44916 653.0
-215.24622 -169.44916 653.0
-211.31174 -169.96814 655.0
-207.66481 -170.74661 658.0
-279.57953 -160.97002 604.0
-274.8876 -160.70352 603.0
-227.23201 -172.69632 648.0
-223.03102 -172.96283 649.0
-218.81602 -173.22932 650.0
-214.91658 -173.76234 652.0
-210.98912 -174.29535 654.0
-207.34921 -175.09488 657.0
-282.8758 -164.65904 602.0
-278.1909 -164.38551 601.0
-274.43173 -164.65904 602.0
-231.06128 -176.69392 646.0
-226.53067 -176.69392 646.0
-222.34372 -176.96744 647.0
-218.47939 -177.51447 649.0
-214.91658 -178.33504 652.0
-210.98912 -178.88206 654.0
-195.53174 -185.99359 680.0
-190.76268 -185.99359 680.0
-186.54065 -186.54063 682.0
-286.144 -168.31999 600.0
-281.936 -168.31999 600.0
-277.728 -168.31999 600.0
-273.9759 -168.60052 601.0
-236.77716 -178.69972 637.0
-233.76843 -179.82185 641.0
-229.63057 -180.10239 642.0
-225.82935 -180.66345 644.0
-222.00008 -181.22452 646.0
-218.47939 -182.06612 649.0
-214.91658 -182.90771 652.0
-199.12256 -189.64052 676.0
-194.38155 -189.64052 676.0
-190.48215 -190.48212 679.0
-186.54065 -191.32372 682.0
-284.2364 -171.37779 596.0
-280.52634 -171.66536 597.0
-276.80225 -171.9529 598.0
-273.52002 -172.52798 600.0
-241.62337 -183.45476 638.0
-237.14886 -183.45476 638.0
-233.40375 -184.02986 640.0
-229.27287 -184.3174 641.0
-225.47867 -184.89249 643.0
-222.00008 -185.75513 646.0
-218.81602 -186.90532 650.0
-205.82732 -191.79361 667.0
-202.05415 -192.65625 670.0
-197.94432 -193.23134 672.0
-193.80646 -193.80643 674.0
-190.20161 -194.95662 678.0
-185.9936 -195.53172 680.0
-284.2364 -175.55779 596.0
-278.64676 -174.6741 593.0
-275.4136 -175.26321 595.0
-272.1524 -175.85233 597.0
-268.86316 -176.44145 599.0
-245.71214 -187.63474 637.0
-240.86594 -187.34018 636.0
-236.77716 -187.63474 637.0
-232.67435 -187.92929 638.0
-229.27287 -188.81297 641.0
-225.128 -189.10753 642.0
-222.00008 -190.28578 646.0
-209.55841 -195.58784 664.0
-205.51874 -196.17697 666.0
-201.451 -196.7661 668.0
-197.64977 -197.64978 671.0
-193.23137 -197.94434 672.0
-189.36 -198.82802 675.0
-286.96457 -178.833 593.0
-282.32877 -178.53142 592.0
-278.17685 -178.53142 592.0
-274.48785 -178.833 593.0
-271.24066 -179.43614 595.0
-267.96545 -180.03928 597.0
-249.00139 -191.19751 634.0
-244.55495 -191.19751 634.0
-240.10849 -191.19751 634.0
-236.40546 -191.80064 636.0
-232.30966 -192.10222 637.0
-228.9152 -193.00694 640.0
-225.128 -193.61008 642.0
-218.21286 -199.64156 662.0
-213.57004 -199.64156 662.0
-209.24281 -199.94313 663.0
-204.90157 -200.2447 664.0
-201.14943 -201.14943 667.0
-197.64977 -202.35571 671.0
-193.80646 -203.26044 674.0
-285.0289 -181.75755 589.0
-280.89804 -181.75755 589.0
-277.70697 -182.37473 591.0
-274.02496 -182.6833 592.0
-270.78482 -183.30048 594.0
-267.5166 -183.91766 596.0
-252.24857 -194.71819 631.0
-247.4304 -194.4096 630.0
-243.01201 -194.4096 630.0
-238.97234 -194.71819 631.0
-236.03374 -195.95255 635.0
-232.30966 -196.5697 637.0
-228.9152 -197.49547 640.0
-221.1725 -202.74146 657.0
-217.22397 -203.35861 659.0
-212.60219 -203.35861 659.0
-208.6116 -203.97578 661.0
-204.59296 -204.59297 663.0
-200.84785 -205.51874 666.0
-284.54495 -185.5728 588.0
-280.89804 -185.8884 589.0
-276.76718 -185.8884 589.0
-274.02496 -186.8352 592.0
-270.32895 -187.1508 593.0
-266.6189 -187.4664 594.0
-255.45367 -198.1968 628.0
-251.44904 -198.5124 629.0
-246.64491 -198.1968 628.0
-242.24054 -198.1968 628.0
-238.59361 -198.828 630.0
-236.03374 -200.406 635.0
-231.94496 -200.7216 636.0
-228.19984 -201.3528 638.0
-224.06198 -205.7712 652.0
-219.82594 -206.0868 653.0
-215.90546 -206.718 655.0
-211.95697 -207.3492 657.0
-207.98041 -207.98041 659.0
-204.28438 -208.9272 662.0
-200.84785 -210.1896 666.0
-288.66882 -189.69664 588.0
-284.54495 -189.69664 588.0
-280.42114 -189.69664 588.0
-276.29727 -189.69664 588.0
-273.0992 -190.34186 590.0
-269.87308 -190.98709 592.0
-266.6189 -191.63232 594.0
-259.85803 -202.60117 628.0
-255.04689 -202.27855 627.0
-250.64952 -202.27855 627.0
-246.64491 -202.60117 628.0
-242.62628 -202.92378 629.0
-238.97234 -203.56902 631.0
-235.66205 -204.53685 634.0
-231.94496 -205.18207 636.0
-231.06128 -208.40822 646.0
-226.88135 -208.73082 647.0
-223.03102 -209.37605 649.0
-219.48929 -210.34389 652.0
-215.57584 -210.98912 654.0
-211.95697 -211.95695 657.0
-207.98041 -212.60219 659.0
-204.28438 -213.57002 662.0
-294.2865 -194.80936 591.0
-288.66882 -193.82047 588.0
-284.06107 -193.49084 587.0
-280.42114 -193.82047 588.0
-276.76718 -194.1501 589.0
-273.0992 -194.47974 590.0
-270.32895 -195.46861 593.0
-262.57922 -205.68704 624.0
-258.61667 -206.01666 625.0
-254.23334 -206.01666 625.0
-249.85 -206.01666 625.0
-246.64491 -207.00554 628.0
-242.62628 -207.33516 629.0
-238.97234 -207.99443 631.0
-235.5919 -212.93883 646.0
-231.06128 -212.93883 646.0
-226.53067 -212.93883 646.0
-222.68736 -213.59807 648.0
-218.81602 -214.25732 650.0
-215.24622 -215.2462 653.0
-211.31174 -215.90546 655.0
-189.07947 -222.16838 674.0
-184.626 -222.498 675.0
-180.15852 -222.82762 676.0
-175.93648 -223.48688 678.0
-292.79263 -197.9443 588.0
-287.68695 -197.27103 586.0
-283.57715 -197.27103 586.0
-280.42114 -197.9443 588.0
-276.76718 -198.28096 589.0
-274.02496 -199.29086 592.0
-270.78482 -199.96416 594.0
-265.24426 -208.71678 620.0
-261.3168 -209.05342 621.0
-257.3753 -209.39008 622.0
-253.4198 -209.7267 623.0
-249.05048 -209.7267 623.0
-246.25217 -211.07327 627.0
-242.24054 -211.40991 628.0
-238.59361 -212.08319 630.0
-238.6357 -216.12286 642.0
-234.8625 -216.79614 644.0
-230.34592 -216.79614 644.0
-225.82935 -216.79614 644.0
-222.34372 -217.80608 647.0
-218.47939 -218.47934 649.0
-214.91658 -219.48927 652.0
-192.65628 -225.54877 670.0
-188.23787 -225.88544 671.0
-183.80545 -226.22208 672.0
-179.89203 -227.23198 675.0
-175.4175 -227.56863 676.0
-296.41153 -201.72452 587.0
-291.2988 -201.03722 585.0
-287.196 -201.03722 585.0
-283.57715 -201.38087 586.0
-280.42114 -202.06818 588.0
-276.76718 -202.41182 589.0
-274.02496 -203.4428 592.0
-272.17346 -211.69048 616.0
-268.72287 -212.37778 618.0
-264.38864 -212.37778 618.0
-260.47522 -212.72142 619.0
-256.54773 -213.06508 620.0
-253.01303 -213.7524 622.0
-249.05048 -214.09604 623.0
-245.46667 -214.78334 625.0
-242.24054 -215.8143 628.0
-241.24466 -218.90718 637.0
-237.89227 -219.93814 640.0
-233.76843 -220.28181 641.0
-229.63057 -220.62546 642.0
-225.47867 -220.9691 643.0
-222.00008 -222.00008 646.0
-218.47939 -223.03104 649.0
-214.91658 -224.06198 652.0
-200.84785 -228.87312 666.0
-196.47153 -229.21678 667.0
-191.79362 -229.21678 667.0
-187.95734 -230.24774 670.0
-183.80545 -230.93506 672.0
-179.62552 -231.62236 674.0
-299.50443 -205.14001 585.0
-295.4016 -205.14001 585.0
-290.80084 -204.78934 584.0
-287.196 -205.14001 585.0
-283.57715 -205.49068 586.0
-279.94424 -205.84134 587.0
-277.70697 -207.24402 591.0
-274.02496 -207.59467 592.0
-278.99042 -214.60802 612.0
-275.1471 -214.95866 613.0
-270.84793 -214.95866 613.0
-266.98358 -215.30934 614.0
-263.10522 -215.66 615.0
-260.0544 -216.712 618.0
-256.13397 -217.06268 619.0
-252.19948 -217.41335 620.0
-249.05048 -218.46535 623.0
-245.07393 -218.816 624.0
-243.01201 -220.92 630.0
-240.86594 -223.024 636.0
-236.77716 -223.37468 637.0
-232.67435 -223.72534 638.0
-229.27287 -224.77734 641.0
-225.47867 -225.47868 643.0
-222.00008 -226.53069 646.0
-208.6116 -231.79068 661.0
-203.9758 -231.79068 661.0
-199.94313 -232.492 663.0
-196.17696 -233.544 666.0
-191.79362 -233.89468 667.0
-187.39627 -234.24535 668.0
-183.53194 -235.29735 671.0
-302.05026 -208.16977 582.0
-298.48047 -208.52745 583.0
-294.3917 -208.52745 583.0
-290.80084 -208.88513 584.0
-287.196 -209.2428 585.0
-284.06107 -209.95816 587.0
-280.89804 -210.67352 589.0
-278.17685 -211.74657 592.0
-274.48785 -212.10425 593.0
-277.6228 -217.82713 609.0
-273.80054 -218.1848 610.0
-269.96426 -218.5425 611.0
-266.11392 -218.90016 612.0
-262.6774 -219.61552 614.0
-259.2128 -220.3309 616.0
-255.72017 -221.04623 618.0
-251.79271 -221.40393 619.0
-248.65073 -222.47696 622.0
-245.46667 -223.55 625.0
-243.01201 -225.3384 630.0
-240.48721 -227.1268 635.0
-236.40546 -227.4845 636.0
-232.30966 -227.84216 637.0
-228.9152 -228.9152 640.0
-225.128 -229.63057 642.0
-215.90546 -234.2804 655.0
-211.95697 -234.99576 657.0
-207.66481 -235.35344 658.0
-203.9758 -236.4265 661.0
-199.64156 -236.78416 662.0
-195.58783 -237.49953 664.0
-191.50607 -238.21489 666.0
-187.95734 -239.6456 670.0
-305.08002 -211.52213 580.0
-301.01227 -211.52213 580.0
-297.45654 -211.88683 581.0
-293.88672 -212.25151 582.0
-290.30292 -212.61621 583.0
-286.70508 -212.98091 584.0
-284.06107 -214.07498 587.0
-281.37494 -215.16907 590.0
-278.64676 -216.26315 593.0
-279.57953 -220.27478 604.0
-276.7111 -221.36885 607.0
-272.45398 -221.36885 607.0
-269.0806 -222.09824 609.0
-265.6791 -222.82762 611.0
-262.24957 -223.557 613.0
-258.37122 -223.92172 614.0
-254.89261 -224.65111 616.0
-251.79271 -225.74518 619.0
-248.65073 -226.83925 622.0
-245.46667 -227.93335 625.0
-242.24054 -229.0274 628.0
-239.35106 -230.48619 632.0
-235.66205 -231.21558 634.0
-232.30966 -232.30965 637.0
-228.19984 -232.67435 638.0
-219.48929 -237.78004 652.0
-215.24622 -238.14476 653.0
-210.98912 -238.50943 654.0
-206.718 -238.87415 655.0
-203.05003 -239.96822 658.0
-199.33998 -241.0623 661.0
-196.17696 -242.88577 666.0
-191.79362 -243.25044 667.0
-304.55402 -215.21815 579.0
-301.01227 -215.58986 580.0
-296.94455 -215.58986 580.0
-293.38174 -215.96158 581.0
-289.80496 -216.33327 582.0
-286.70508 -217.07668 584.0
-284.54495 -218.56354 588.0
-281.85187 -219.67863 591.0
-279.11664 -220.79376 594.0
-276.80225 -222.2806 598.0
-274.8876 -224.13913 603.0
-272.00513 -225.25424 606.0
-268.63873 -225.99765 608.0
-265.6791 -227.11278 611.0
-262.24957 -227.85619 613.0
-258.37122 -228.22787 614.0
-254.89261 -228.9713 616.0
-251.79271 -230.08643 619.0
-248.65073 -231.20155 622.0
-245.07393 -231.94496 624.0
-242.24054 -233.4318 628.0
-238.97234 -234.54689 631.0
-234.91862 -234.91861 632.0
-231.94496 -236.40544 636.0
-231.06128 -240.1225 646.0
-226.88135 -240.49422 647.0
-222.34372 -240.49422 647.0
-218.14273 -240.86594 648.0
-214.25732 -241.60934 650.0
-210.66652 -242.72444 653.0
-206.718 -243.46786 655.0
-202.74146 -244.21127 657.0
-198.73685 -244.95468 659.0
-307.0157 -218.1427 576.0
-303.502 -218.52144 577.0
-299.45535 -218.52144 577.0
-295.9206 -218.90016 578.0
-292.8768 -219.6576 580.0
-289.80496 -220.41504 582.0
-286.70508 -221.17247 584.0
-284.54495 -222.68736 588.0
-281.85187 -223.8235 591.0
-279.11664 -224.95967 594.0
-276.33936 -226.09584 597.0
-273.52002 -227.232 600.0
-271.10742 -228.74687 604.0
-268.1969 -229.88304 607.0
-265.6791 -231.3979 611.0
-262.24957 -232.15536 613.0
-258.37122 -232.53407 614.0
-254.89261 -233.2915 616.0
-251.79271 -234.42767 619.0
-248.25096 -235.1851 621.0
-244.68118 -235.94257 623.0
-241.85481 -237.45743 627.0
-238.21489 -238.21487 629.0
-235.66205 -240.10847 634.0
-231.94496 -240.8659 636.0
-229.63057 -243.13823 642.0
-226.53067 -244.6531 646.0
-222.00008 -244.6531 646.0
-217.80609 -245.03183 647.0
-213.9277 -245.78928 649.0
-210.3439 -246.92543 652.0
-206.4024 -247.68288 654.0
-202.12427 -248.0616 655.0
-309.4353 -221.0252 573.0
-305.94965 -221.41092 574.0
-302.976 -222.1824 576.0
-298.9363 -222.1824 576.0
-295.40863 -222.56812 577.0
-292.37183 -223.3396 579.0
-289.30704 -224.11105 581.0
-286.70508 -225.26826 584.0
-284.06107 -226.42546 587.0
-281.37494 -227.58266 590.0
-278.64676 -228.73985 593.0
-276.33936 -230.2828 597.0
-273.52002 -231.44 600.0
-270.20972 -232.21146 602.0
-267.75507 -233.7544 606.0
-265.24426 -235.29732 610.0
-262.24957 -236.45451 613.0
-257.9504 -236.45451 613.0
-254.89261 -237.61171 616.0
-251.79271 -238.76892 619.0
-247.85121 -239.15466 620.0
-244.68118 -240.31186 623.0
-241.08334 -241.08331 625.0
-237.83617 -242.24051 628.0
-234.91862 -243.78346 632.0
-232.67435 -246.09785 638.0
-229.27287 -247.25507 641.0
-225.128 -247.6408 642.0
-220.9691 -248.02652 643.0
-217.46945 -249.18372 646.0
-213.9277 -250.34091 649.0
-210.3439 -251.49812 652.0
-308.89526 -224.65108 572.0
-304.8836 -224.65108 572.0
-300.872 -224.65108 572.0
-297.89838 -225.43657 574.0
-294.89667 -226.22208 576.0
-291.86688 -227.00755 578.0
-288.80908 -227.79306 580.0
-286.70508 -229.36404 584.0
-284.06107 -230.54228 587.0
-281.37494 -231.72052 590.0
-278.64676 -232.89876 593.0
-276.33936 -234.46974 597.0
-273.52002 -235.64798 600.0
-270.65857 -236.82623 603.0
-269.0806 -239.18271 609.0
-265.24426 -239.57545 610.0
-261.82178 -240.36095 612.0
-257.9504 -240.7537 613.0
-255.72017 -242.71744 618.0
-251.79271 -243.11017 619.0
-248.25096 -243.89568 621.0
-244.28844 -244.28842 622.0
-241.08334 -245.46666 625.0
-238.21489 -247.03764 629.0
-234.91862 -248.21588 632.0
-232.30966 -250.17963 637.0
-228.9152 -251.35786 640.0
-224.77734 -251.75058 641.0
-220.62546 -252.14334 642.0
-217.46945 -253.71432 646.0
-213.9277 -254.89256 649.0
-310.71872 -227.06369 568.0
-307.27518 -227.46346 569.0
-303.8176 -227.8632 570.0
-299.82 -227.8632 570.0
-296.8604 -228.66273 572.0
-294.38467 -229.862 575.0
-291.36194 -230.66153 577.0
-288.31113 -231.46106 579.0
-286.70508 -233.45985 584.0
-284.06107 -234.65913 587.0
-281.85187 -236.25816 591.0
-278.64676 -237.0577 593.0
-276.80225 -239.05649 598.0
-273.52002 -239.856 600.0
-270.65857 -241.0553 603.0
-269.0806 -243.45386 609.0
-265.24426 -243.8536 610.0
-262.24957 -245.0529 613.0
-258.37122 -245.45267 614.0
-255.72017 -247.0517 618.0
-251.79271 -247.45146 619.0
-248.25096 -248.25096 621.0
-244.28844 -248.65073 622.0
-240.6976 -249.45026 624.0
-238.21489 -251.44907 629.0
-234.91862 -252.64833 632.0
-231.94496 -254.24736 636.0
-228.19984 -255.04689 638.0
-224.77734 -256.24615 641.0
-220.9691 -257.0457 643.0
-309.62466 -230.23372 566.0
-306.73517 -231.04727 568.0
-302.75156 -231.04727 568.0
-299.294 -231.45403 569.0
-296.3414 -232.26758 571.0
-292.84875 -232.67435 572.0
-291.36194 -234.7082 577.0
-288.31113 -235.52176 579.0
-285.23227 -236.33531 581.0
-284.54495 -239.18272 588.0
-281.85187 -240.40306 591.0
-279.11664 -241.62337 594.0
-276.33936 -242.84369 597.0
-273.9759 -244.47078 601.0
-272.00513 -246.50465 606.0
-268.63873 -247.31819 608.0
-265.24426 -248.13174 610.0
-262.24957 -249.35207 613.0
-258.37122 -249.75882 614.0
-254.89261 -250.57237 616.0
-251.79271 -251.79271 619.0
-247.45143 -251.79271 619.0
-243.89568 -252.60626 621.0
-240.31187 -253.41978 623.0
-237.83617 -255.45367 628.0
-234.54692 -256.67398 631.0
-231.58028 -258.3011 635.0
-227.84216 -259.11462 637.0
-224.42668 -260.33493 640.0
-309.0776 -233.78946 565.0
-305.11508 -233.78946 565.0
-301.68558 -234.20325 566.0
-298.768 -235.03082 568.0
-295.82242 -235.8584 570.0
-292.84875 -236.68597 572.0
-290.85696 -238.34113 576.0
-288.31113 -239.58249 579.0
-285.7232 -240.82384 582.0
-284.54495 -243.30656 588.0
-281.85187 -244.54793 591.0
-280.05643 -246.61685 596.0
-276.80225 -247.44443 598.0
-274.43173 -249.09958 602.0
-272.00513 -250.75473 606.0
-269.0806 -251.9961 609.0
-265.6791 -252.82365 611.0
-262.24957 -253.65123 613.0
-258.37122 -254.06502 614.0
-254.4788 -254.4788 615.0
-251.38594 -255.72017 618.0
-247.45143 -256.13394 619.0
-243.89568 -256.96152 621.0
-240.31187 -257.7891 623.0
-237.45746 -259.44424 627.0
-234.1752 -260.6856 630.0
-231.21556 -262.34076 634.0
-227.48448 -263.16833 636.0

