ply
format ascii 1.0
comment made by @arthurmuchir
element vertex 618
property float x
property float y
property float z
end_header
-177.49345 -154.13902 666.0
-185.9936 -158.09457 663.0
-182.16434 -158.80994 666.0
-177.49345 -158.80994 666.0
-172.82256 -158.80994 666.0
-189.49326 -161.76254 659.0
-185.43254 -162.25348 661.0
-181.07025 -162.49895 662.0
-176.96045 -162.98988 664.0
-172.82256 -163.48082 666.0
-198.1337 -165.87936 657.0
-193.52592 -165.87936 657.0
-188.91817 -165.87936 657.0
-184.59094 -166.13185 658.0
-180.2497 -166.38432 659.0
-176.42743 -167.14177 662.0
-252.40988 -158.29092 610.0
-248.9453 -158.80992 612.0
-201.81569 -169.70865 654.0
-197.22897 -169.70865 654.0
-192.64223 -169.70865 654.0
-188.34308 -169.96814 655.0
-184.31041 -170.48712 657.0
-179.97617 -170.74661 658.0
-176.42743 -171.78459 662.0
-251.9961 -162.30255 609.0
-247.72498 -162.30255 609.0
-243.8536 -162.56908 610.0
-240.36096 -163.10208 612.0
-200.58134 -173.22932 650.0
-196.02269 -173.22932 650.0
-192.05312 -173.76234 652.0
-187.76799 -174.02884 653.0
-184.31041 -175.09488 657.0
-180.2497 -175.6279 659.0
-166.4264 -180.69151 678.0
-162.14827 -181.22453 680.0
-158.07353 -182.02405 683.0
-153.9567 -182.82358 686.0
-250.75475 -165.75311 606.0
-246.50465 -165.75311 606.0
-243.05408 -166.30016 608.0
-239.57547 -166.8472 610.0
-208.4082 -176.69392 646.0
-204.1932 -176.96744 647.0
-199.65558 -176.96744 647.0
-195.41954 -177.24095 648.0
-191.46399 -177.788 650.0
-187.76799 -178.60855 653.0
-184.31041 -179.70264 657.0
-170.17152 -184.35246 674.0
-165.93547 -184.89952 676.0
-161.67136 -185.44655 678.0
-157.37923 -185.99359 680.0
-153.50783 -187.08768 684.0
-249.51337 -169.16159 603.0
-245.28433 -169.16159 603.0
-242.25456 -170.00319 606.0
-238.78998 -170.56425 608.0
-235.68307 -171.40585 611.0
-211.62032 -180.10239 642.0
-207.76299 -180.66345 644.0
-203.87761 -181.22452 646.0
-199.347 -181.22452 646.0
-195.11797 -181.50507 647.0
-191.46399 -182.34666 650.0
-187.48042 -182.90771 652.0
-174.12003 -188.23785 671.0
-169.66656 -188.51839 672.0
-165.69 -189.35999 675.0
-161.67136 -190.20158 678.0
-157.37923 -190.76266 680.0
-153.2834 -191.60426 683.0
-252.48001 -172.52798 600.0
-248.272 -172.52798 600.0
-244.47078 -172.81552 601.0
-240.65552 -173.10309 602.0
-237.219 -173.67818 604.0
-211.62032 -184.60493 642.0
-207.11777 -184.60493 642.0
-202.9308 -184.89249 643.0
-198.72983 -185.18004 644.0
-195.11797 -186.04268 647.0
-191.46399 -186.90532 650.0
-177.75996 -191.79361 667.0
-173.34154 -192.08116 668.0
-169.41408 -192.9438 671.0
-164.95361 -193.23134 672.0
-161.19447 -194.38153 676.0
-157.14778 -195.24417 679.0
-248.272 -176.73601 600.0
-243.65724 -176.44145 599.0
-240.25577 -177.03058 601.0
-236.82625 -177.61969 603.0
-233.75441 -178.50337 606.0
-214.77634 -187.92929 638.0
-210.3018 -187.92929 638.0
-206.79515 -188.81297 641.0
-202.6152 -189.10753 642.0
-198.42123 -189.4021 643.0
-195.11797 -190.58034 647.0
-192.05312 -192.05313 652.0
-185.9936 -195.29329 663.0
-181.6173 -195.58784 664.0
-177.49345 -196.17697 666.0
-173.08205 -196.47153 667.0
-168.65665 -196.7661 668.0
-164.95361 -197.94434 672.0
-161.19447 -199.12257 676.0
-252.0592 -180.64244 599.0
-247.85823 -180.64244 599.0
-243.25047 -180.34087 598.0
-239.856 -180.94402 600.0
-236.04074 -181.24557 601.0
-233.75441 -182.75345 606.0
-218.56354 -191.80064 636.0
-214.4397 -192.10222 637.0
-209.97218 -192.10222 637.0
-205.82732 -192.40381 638.0
-202.2996 -193.30852 641.0
-198.11266 -193.61008 642.0
-195.11797 -195.11795 647.0
-194.70416 -199.33998 661.0
-190.06834 -199.33998 661.0
-185.71307 -199.64156 662.0
-181.07025 -199.64156 662.0
-176.69394 -199.94313 663.0
-172.82256 -200.84785 666.0
-168.65665 -201.451 668.0
-164.70815 -202.35571 671.0
-251.63841 -184.53484 598.0
-247.03065 -184.22624 597.0
-242.84369 -184.22624 597.0
-239.45624 -184.84341 599.0
-236.04074 -185.46059 601.0
-233.75441 -187.00352 606.0
-222.67334 -195.95255 635.0
-218.21988 -195.95255 635.0
-213.7664 -195.95255 635.0
-209.64256 -196.26112 636.0
-205.82732 -196.8783 638.0
-202.2996 -197.80406 641.0
-198.11266 -198.11264 642.0
-198.1337 -202.74146 657.0
-193.52592 -202.74146 657.0
-188.91817 -202.74146 657.0
-184.59094 -203.05003 658.0
-180.79674 -203.97578 661.0
-176.42743 -204.28438 662.0
-172.82256 -205.51874 666.0
-169.1616 -206.75307 670.0
-255.83238 -188.7288 598.0
-251.2176 -188.4132 597.0
-246.61687 -188.0976 596.0
-242.43692 -188.0976 596.0
-239.05647 -188.7288 598.0
-236.04074 -189.6756 601.0
-232.59721 -190.3068 603.0
-226.05377 -199.4592 632.0
-221.62134 -199.4592 632.0
-217.18892 -199.4592 632.0
-213.42978 -200.0904 634.0
-209.64256 -200.7216 636.0
-205.82732 -201.3528 638.0
-202.2996 -202.2996 641.0
-198.11266 -202.6152 642.0
-197.53056 -206.718 655.0
-192.64223 -206.4024 654.0
-188.34308 -206.718 655.0
-184.31041 -207.3492 657.0
-180.79674 -208.6116 661.0
-176.42743 -208.9272 662.0
-172.30356 -209.5584 664.0
-152.3857 -214.2924 679.0
-147.84106 -214.608 680.0
-143.4928 -215.2392 682.0
-255.40457 -192.60016 597.0
-251.2176 -192.60016 597.0
-247.03065 -192.60016 597.0
-242.84369 -192.60016 597.0
-239.45624 -193.24539 599.0
-236.04074 -193.89061 601.0
-232.59721 -194.53583 603.0
-234.91862 -203.89162 632.0
-229.3921 -202.92378 629.0
-225.33841 -203.2464 630.0
-221.27068 -203.56902 631.0
-217.18892 -203.89162 632.0
-213.42978 -204.53685 634.0
-209.64256 -205.18207 636.0
-205.82732 -205.8273 638.0
-204.8244 -209.37605 649.0
-201.19852 -210.34389 652.0
-196.62582 -210.34389 652.0
-192.05312 -210.34389 652.0
-187.76799 -210.6665 653.0
-183.74934 -211.31172 655.0
-180.2497 -212.60219 659.0
-176.16092 -213.2474 661.0
-156.45345 -218.08661 676.0
-152.16127 -218.73184 678.0
-147.62366 -219.05444 679.0
-143.4928 -220.02228 682.0
-259.1567 -196.45749 596.0
-255.40457 -196.78712 597.0
-250.79681 -196.45749 596.0
-246.61687 -196.45749 596.0
-242.84369 -196.78712 597.0
-239.856 -197.77599 600.0
-236.82625 -198.76488 603.0
-233.06009 -206.67592 627.0
-228.66272 -206.67592 627.0
-224.26537 -206.67592 627.0
-220.21867 -207.00554 628.0
-216.84528 -207.99443 631.0
-212.7565 -208.32405 632.0
-209.31294 -209.31293 635.0
-205.5047 -209.97218 637.0
-204.1932 -213.26845 647.0
-200.27277 -213.92769 649.0
-195.72112 -213.92769 649.0
-191.16943 -213.92769 649.0
-187.48042 -214.91658 652.0
-183.74934 -215.90546 655.0
-179.15561 -215.90546 655.0
-164.70815 -221.17949 671.0
-160.24065 -221.50911 672.0
-155.5277 -221.50911 672.0
-151.48799 -222.498 675.0
-147.40625 -223.48688 678.0
-143.072 -224.14612 680.0
-263.7785 -200.97408 597.0
-259.1567 -200.63742 596.0
-254.54895 -200.30078 595.0
-250.79681 -200.63742 596.0
-246.61687 -200.63742 596.0
-243.65724 -201.64735 599.0
-239.856 -201.984 600.0
-239.92615 -209.39008 622.0
-235.56386 -209.39008 622.0
-231.57327 -209.7267 623.0
-227.56863 -210.06335 624.0
-223.55 -210.4 625.0
-219.86801 -211.07327 627.0
-216.15796 -211.74655 629.0
-212.41985 -212.41982 631.0
-209.31294 -213.76639 635.0
-205.5047 -214.43967 637.0
-203.87761 -217.46944 646.0
-199.65558 -217.80608 647.0
-195.11797 -217.80608 647.0
-191.16943 -218.47934 649.0
-187.48042 -219.48927 652.0
-183.46881 -220.16254 654.0
-173.08205 -224.53886 667.0
-168.65665 -224.8755 668.0
-164.46268 -225.54877 670.0
-160.0022 -225.88544 671.0
-155.5277 -226.22208 672.0
-151.48799 -227.23198 675.0
-146.9714 -227.56863 676.0
-267.5166 -204.8174 596.0
-262.8948 -204.47374 595.0
-258.28705 -204.1301 594.0
-254.12112 -204.1301 594.0
-250.376 -204.47374 595.0
-246.61687 -204.8174 596.0
-244.06401 -206.19202 600.0
-240.25577 -206.53568 601.0
-243.11018 -212.72142 619.0
-239.15468 -213.06508 620.0
-234.80641 -213.06508 620.0
-230.82985 -213.40874 621.0
-227.20395 -214.09604 623.0
-223.19232 -214.4397 624.0
-219.16667 -214.78334 625.0
-215.8143 -215.8143 628.0
-212.0832 -216.50163 630.0
-208.9833 -217.87624 634.0
-205.82732 -219.25085 638.0
-202.6152 -220.62546 642.0
-199.347 -222.00008 646.0
-195.11797 -222.34372 647.0
-191.16943 -223.03104 649.0
-187.48042 -224.06198 652.0
-184.87148 -226.46756 659.0
-180.79674 -227.15488 661.0
-176.42743 -227.49852 662.0
-172.04408 -227.84216 663.0
-167.64671 -228.18584 664.0
-163.72627 -229.21678 667.0
-159.76373 -230.24774 670.0
-155.5277 -230.93506 672.0
-151.71243 -232.30968 676.0
-266.6189 -208.29602 594.0
-262.01114 -207.94534 593.0
-257.8522 -207.94534 593.0
-254.12112 -208.29602 594.0
-250.79681 -208.99734 596.0
-247.44443 -209.69867 598.0
-244.47078 -210.75067 601.0
-241.45503 -211.80267 604.0
-241.14645 -215.30934 614.0
-237.61174 -216.01068 616.0
-234.04897 -216.712 618.0
-230.45815 -217.41335 620.0
-226.83925 -218.11469 622.0
-222.83466 -218.46535 623.0
-218.81601 -218.816 624.0
-215.8143 -220.21869 628.0
-211.74658 -220.56934 629.0
-208.32405 -221.62134 632.0
-205.5047 -223.37468 637.0
-202.2996 -224.77734 641.0
-198.42123 -225.47868 643.0
-194.81639 -226.53069 646.0
-190.87488 -227.232 648.0
-187.76799 -228.98534 653.0
-184.31041 -230.388 657.0
-179.97617 -230.73868 658.0
-176.16092 -231.79068 661.0
-171.78459 -232.14134 662.0
-167.39426 -232.492 663.0
-163.4808 -233.544 666.0
-159.28683 -234.24535 668.0
-155.5277 -235.648 672.0
-270.32895 -212.10425 593.0
-266.17004 -212.10425 593.0
-261.5693 -211.74657 592.0
-257.4174 -211.74657 592.0
-254.12112 -212.46193 594.0
-250.79681 -213.17728 596.0
-247.44443 -213.89265 598.0
-244.87756 -215.32336 602.0
-242.25456 -216.75409 606.0
-239.57547 -218.1848 610.0
-236.45454 -219.25783 613.0
-232.91281 -219.9732 615.0
-229.71474 -221.04623 618.0
-226.47456 -222.1193 621.0
-222.83466 -222.83464 623.0
-218.46535 -222.83464 623.0
-215.47066 -224.26537 627.0
-211.74658 -224.98073 629.0
-208.32405 -226.05377 632.0
-204.85947 -227.1268 635.0
-201.0372 -227.84216 637.0
-198.11266 -229.63057 642.0
-194.81639 -231.0613 646.0
-192.05312 -233.20737 652.0
-187.76799 -233.56503 653.0
-183.18828 -233.56503 653.0
-179.15561 -234.2804 655.0
-175.3614 -235.35344 658.0
-171.5251 -236.4265 661.0
-167.39426 -237.14183 663.0
-163.4808 -238.21489 666.0
-268.96133 -215.16907 590.0
-264.8235 -215.16907 590.0
-261.12744 -215.53377 591.0
-257.4174 -215.89845 592.0
-253.69331 -216.26315 593.0
-250.79681 -217.35722 596.0
-248.272 -218.816 600.0
-244.87756 -219.5454 602.0
-242.25456 -221.00417 606.0
-238.78998 -221.73355 608.0
-235.68307 -222.82762 611.0
-232.53409 -223.92172 614.0
-228.97131 -224.65111 616.0
-226.47456 -226.47456 621.0
-222.83466 -227.20395 623.0
-218.81601 -227.56863 624.0
-215.47066 -228.66273 627.0
-211.40994 -229.0274 628.0
-207.99443 -230.1215 631.0
-204.53685 -231.21558 634.0
-201.0372 -232.30965 637.0
-198.11266 -234.13313 642.0
-195.11797 -235.95659 647.0
-191.46399 -237.05066 650.0
-186.90533 -237.05066 650.0
-182.90775 -237.78004 652.0
-178.60857 -238.14476 653.0
-175.0949 -239.60353 657.0
-171.5251 -241.0623 661.0
-167.39426 -241.79167 663.0
-272.63632 -218.93523 589.0
-268.96133 -219.30695 590.0
-264.37463 -218.93523 589.0
-260.6856 -219.30695 590.0
-257.4174 -220.05035 592.0
-253.69331 -220.42204 593.0
-250.376 -221.16545 595.0
-247.85823 -222.65228 599.0
-244.87756 -223.76741 602.0
-241.45503 -224.51082 604.0
-238.78998 -225.99765 608.0
-235.68307 -227.11278 611.0
-232.53409 -228.22787 614.0
-229.71474 -229.71474 618.0
-226.47456 -230.82983 621.0
-222.83466 -231.57324 623.0
-218.81601 -231.94496 624.0
-215.47066 -233.06007 627.0
-211.40994 -233.4318 628.0
-207.99443 -234.54689 631.0
-203.89163 -234.91861 632.0
-200.7216 -236.40544 636.0
-197.80408 -238.26398 641.0
-194.81639 -240.1225 646.0
-190.87488 -240.86594 648.0
-186.61778 -241.23763 649.0
-182.34668 -241.60934 650.0
-178.60857 -242.72444 653.0
-175.0949 -244.21127 657.0
-273.56207 -223.8235 591.0
-268.50546 -223.06607 589.0
-263.92578 -222.68736 588.0
-260.24377 -223.06607 589.0
-257.4174 -224.20224 592.0
-253.69331 -224.58096 593.0
-250.79681 -225.7171 596.0
-247.85823 -226.85327 599.0
-244.47078 -227.6107 601.0
-241.45503 -228.74687 604.0
-238.78998 -230.26176 608.0
-235.29735 -231.0192 610.0
-232.53409 -232.53407 614.0
-229.71474 -234.04897 618.0
-226.47456 -235.1851 621.0
-222.83466 -235.94257 623.0
-218.81601 -236.32127 624.0
-215.47066 -237.45743 627.0
-211.40994 -237.83617 628.0
-207.66481 -238.5936 630.0
-203.89163 -239.35103 632.0
-200.7216 -240.8659 636.0
-197.49547 -242.3808 640.0
-194.21324 -243.89568 644.0
-190.58032 -245.03183 647.0
-186.33025 -245.41057 648.0
-182.34668 -246.168 650.0
-178.33505 -246.92543 652.0
-276.76718 -227.19691 589.0
-271.71057 -226.42546 587.0
-267.59375 -226.42546 587.0
-263.02808 -226.03972 586.0
-259.80194 -226.8112 588.0
-256.1129 -227.19691 589.0
-253.2655 -228.35411 592.0
-250.376 -229.51132 595.0
-247.44443 -230.66852 598.0
-244.47078 -231.82571 601.0
-241.45503 -232.98291 604.0
-238.78998 -234.52586 608.0
-235.29735 -235.29732 610.0
-232.53409 -236.84026 614.0
-230.08646 -238.76892 619.0
-226.47456 -239.5404 621.0
-222.47696 -239.92612 622.0
-218.81601 -240.6976 624.0
-215.47066 -241.8548 627.0
-211.40994 -242.24051 628.0
-207.33517 -242.62625 629.0
-203.56902 -243.39772 631.0
-200.09041 -244.55492 634.0
-196.8783 -246.09785 638.0
-193.61009 -247.6408 642.0
-190.28577 -249.18372 646.0
-186.0427 -249.56946 647.0
-182.06615 -250.34091 649.0
-177.78801 -250.72665 650.0
-281.37494 -231.72052 590.0
-276.29727 -230.93503 588.0
-271.24768 -230.14952 586.0
-266.682 -229.75677 585.0
-262.57922 -229.75677 585.0
-259.3601 -230.54228 587.0
-256.1129 -231.32776 589.0
-252.83768 -232.11327 591.0
-250.376 -233.68427 595.0
-247.44443 -234.86249 598.0
-244.47078 -236.04073 601.0
-242.25456 -238.00447 606.0
-239.18272 -239.18271 609.0
-236.0688 -240.36095 612.0
-232.91281 -241.53917 615.0
-229.71474 -242.71744 618.0
-226.83925 -244.28842 622.0
-222.83466 -244.68115 623.0
-218.81601 -245.0739 624.0
-214.78334 -245.46666 625.0
-211.07329 -246.25214 627.0
-207.00554 -246.6449 628.0
-203.56902 -247.82314 631.0
-200.09041 -249.00136 634.0
-196.8783 -250.57236 638.0
-193.61009 -252.14334 642.0
-189.69664 -252.92885 644.0
-186.0427 -254.10709 647.0
-279.94424 -234.65913 587.0
-275.3575 -234.25937 586.0
-270.78482 -233.8596 585.0
-266.22614 -233.45985 584.0
-262.57922 -233.8596 585.0
-259.3601 -234.65913 587.0
-256.1129 -235.45866 589.0
-252.83768 -236.25816 591.0
-250.376 -237.8572 595.0
-247.03065 -238.65672 597.0
-244.87756 -240.65553 602.0
-242.25456 -242.25456 606.0
-239.18272 -243.45386 609.0
-236.45454 -245.0529 613.0
-233.29153 -246.25217 616.0
-230.08646 -247.45146 619.0
-226.47456 -248.25096 621.0
-222.47696 -248.65073 622.0
-218.46535 -249.05049 623.0
-214.78334 -249.85 625.0
-211.07329 -250.64954 627.0
-207.00554 -251.0493 628.0
-203.56902 -252.24857 631.0
-200.09041 -253.44786 634.0
-196.56972 -254.64713 637.0
-193.00694 -255.8464 640.0
-189.10751 -256.64594 642.0
-174.29538 -261.44305 654.0
-168.67065 -259.84402 650.0
-146.99945 -261.84283 655.0
-142.84056 -262.64233 657.0
-308.2781 -241.62337 594.0
-306.67206 -243.65723 599.0
-284.06107 -238.77596 587.0
-279.46732 -238.36917 586.0
-274.8876 -237.9624 585.0
-270.32193 -237.55562 584.0
-266.22614 -237.55562 584.0
-262.57922 -237.9624 585.0
-258.91824 -238.36917 586.0
-256.1129 -239.58951 589.0
-252.83768 -240.40306 591.0
-250.79681 -242.43692 596.0
-247.44443 -243.25047 598.0
-245.69112 -245.6911 604.0
-243.05408 -247.31819 608.0
-239.96822 -248.53851 611.0
-236.84027 -249.75882 614.0
-233.29153 -250.57237 616.0
-230.08646 -251.79271 619.0
-226.10988 -252.19948 620.0
-222.47696 -253.01302 622.0
-218.46535 -253.41978 623.0
-214.4397 -253.82657 624.0
-211.07329 -255.04689 627.0
-207.00554 -255.45367 628.0
-203.24641 -256.2672 630.0
-199.45921 -257.08075 632.0
-196.26114 -258.70786 636.0
-192.10223 -259.11462 637.0
-188.5184 -260.33493 640.0
-184.31741 -260.74173 641.0
-172.42982 -263.18234 647.0
-168.15167 -263.58914 648.0
-163.85951 -263.9959 649.0
-159.55334 -264.40268 650.0
-155.47159 -265.21622 652.0
-151.13034 -265.623 653.0
-146.99945 -266.43655 655.0
-142.84056 -267.2501 657.0
-138.4432 -267.65686 658.0
-306.65802 -241.23763 583.0
-304.1262 -242.47899 586.0
-306.67206 -247.85822 599.0
-302.976 -248.272 600.0
-297.27414 -247.03064 597.0
-290.63254 -244.96172 592.0
-284.54495 -243.30656 588.0
-279.46732 -242.47899 586.0
-274.8876 -242.0652 585.0
-270.32193 -241.65141 584.0
-266.22614 -241.65141 584.0
-262.13037 -241.65141 584.0
-258.91824 -242.47899 586.0
-256.1129 -243.72035 589.0
-253.2655 -244.96172 592.0
-250.79681 -246.61685 596.0
-247.85823 -247.85822 599.0
-245.69112 -249.92715 604.0
-243.45384 -251.9961 609.0
-240.36096 -253.23744 612.0
-236.84027 -254.06502 614.0
-234.04897 -255.72017 618.0
-230.08646 -256.13394 619.0
-226.10988 -256.54773 620.0
-222.47696 -257.3753 622.0
-218.11467 -257.3753 622.0
-214.4397 -258.20288 624.0
-211.07329 -259.44424 627.0
-206.67592 -259.44424 627.0
-202.92378 -260.27182 629.0
-199.1436 -261.0994 631.0
-195.95255 -262.75455 635.0
-192.40381 -263.9959 638.0
-188.81296 -265.23724 641.0
-184.60497 -265.65103 642.0
-180.1024 -265.65103 642.0
-175.87337 -266.06482 643.0
-172.16331 -267.30618 646.0
-167.63269 -267.30618 646.0
-163.35457 -267.71997 647.0
-159.06241 -268.13376 648.0
-154.99467 -268.96133 650.0
-150.8989 -269.7889 652.0
-146.77502 -270.6165 654.0
-142.40573 -271.03027 655.0
-138.4432 -272.27164 658.0

