ply
format ascii 1.0
comment made by @arthurmuchir
element vertex 213
property float x
property float y
property float z
end_header
-197.08168 -181.62428 551.0
-193.91867 -182.28354 553.0
-190.38396 -182.61316 554.0
-200.21663 -184.81535 549.0
-196.72401 -185.152 550.0
-193.21735 -185.48863 551.0
-190.0403 -186.16191 553.0
-206.78114 -187.63474 546.0
-202.95184 -187.63474 546.0
-199.48726 -187.9784 547.0
-196.00865 -188.32204 548.0
-192.86667 -189.00934 550.0
-189.69666 -189.69666 552.0
-213.65419 -190.76266 544.0
-209.83894 -190.76266 544.0
-206.0237 -190.76266 544.0
-202.58014 -191.11334 545.0
-199.12256 -191.46402 546.0
-195.29327 -191.46402 546.0
-192.16534 -192.16534 548.0
-272.17343 -180.27074 504.0
-270.23776 -181.34377 507.0
-267.208 -181.70145 508.0
-264.1642 -182.05913 509.0
-220.87794 -194.22025 543.0
-217.06967 -194.22025 543.0
-213.26144 -194.22025 543.0
-209.4532 -194.22025 543.0
-205.64496 -194.22025 543.0
-202.20845 -194.57793 544.0
-198.75787 -194.9356 545.0
-195.29327 -195.29329 546.0
-191.81467 -195.65097 547.0
-178.31401 -202.0892 565.0
-274.6141 -183.07607 502.0
-271.09338 -183.07607 502.0
-268.63873 -183.80545 504.0
-266.156 -184.53482 506.0
-263.12625 -184.89952 507.0
-261.61838 -186.35829 511.0
-223.44481 -196.9344 540.0
-219.65761 -196.9344 540.0
-215.8704 -196.9344 540.0
-212.0832 -196.9344 540.0
-208.68175 -197.29909 541.0
-205.64496 -198.02849 543.0
-202.20845 -198.39317 544.0
-198.75787 -198.75787 545.0
-195.29327 -199.12256 546.0
-180.98607 -204.59297 561.0
-177.99841 -205.68704 564.0
-174.35147 -206.05173 565.0
-170.38895 -206.05173 565.0
-166.72096 -206.41643 566.0
-273.52002 -185.85333 500.0
-270.55338 -186.22504 501.0
-267.03967 -186.22504 501.0
-265.104 -187.34015 504.0
-262.60727 -188.08357 506.0
-259.5705 -188.45528 507.0
-226.8112 -200.3499 539.0
-223.03102 -200.3499 539.0
-219.25085 -200.3499 539.0
-215.47063 -200.3499 539.0
-212.0832 -200.7216 540.0
-208.68175 -201.0933 541.0
-205.64496 -201.83672 543.0
-202.20845 -202.20842 544.0
-198.75787 -202.58012 545.0
-184.92056 -208.52744 561.0
-180.98607 -208.52744 561.0
-177.3672 -208.89914 562.0
-173.7343 -209.27084 563.0
-170.08739 -209.64255 564.0
-166.4264 -210.01427 565.0
-271.8789 -188.22383 497.0
-268.9333 -188.60255 498.0
-265.97366 -188.98128 499.0
-263.526 -189.73872 501.0
-262.0883 -191.2536 505.0
-259.5705 -192.01103 507.0
-229.73576 -203.37263 537.0
-226.39041 -203.75136 538.0
-222.61723 -203.75136 538.0
-218.4373 -203.37263 537.0
-215.07088 -203.75136 538.0
-212.0832 -204.5088 540.0
-208.68175 -204.88751 541.0
-205.26625 -205.26624 542.0
-202.20845 -206.02367 544.0
-191.41492 -210.94704 557.0
-187.84514 -211.32576 558.0
-183.93167 -211.32576 558.0
-180.34085 -211.70447 559.0
-177.0516 -212.46191 561.0
-173.42572 -212.84064 562.0
-170.08739 -213.59807 564.0
-270.78482 -190.93799 495.0
-267.85324 -191.32373 496.0
-265.44064 -192.09518 498.0
-262.474 -192.48093 499.0
-260.5313 -193.63812 502.0
-258.03458 -194.40959 504.0
-235.94258 -205.98158 534.0
-232.19743 -205.98158 534.0
-228.88014 -206.36732 535.0
-225.54881 -206.75305 536.0
-221.78967 -206.75305 536.0
-218.4373 -207.1388 537.0
-215.07088 -207.52454 538.0
-212.0832 -208.29599 540.0
-208.68175 -208.68173 541.0
-198.15472 -213.69626 554.0
-194.26933 -213.69626 554.0
-190.38396 -213.69626 554.0
-186.8352 -214.08199 555.0
-183.27243 -214.46773 556.0
-179.69563 -214.85345 557.0
-176.42041 -215.62492 559.0
-173.11714 -216.3964 561.0
-169.48422 -216.78212 562.0
-269.1437 -193.23135 492.0
-266.77316 -194.01685 494.0
-264.3746 -194.80234 496.0
-262.474 -195.98058 499.0
-259.49335 -196.37332 500.0
-257.01062 -197.15881 502.0
-239.6877 -209.7267 534.0
-235.50073 -209.33397 533.0
-231.76262 -209.33397 533.0
-228.45232 -209.7267 534.0
-224.70721 -209.7267 534.0
-221.78967 -210.51219 536.0
-218.4373 -210.90495 537.0
-215.47063 -211.69044 539.0
-211.69046 -211.69044 539.0
-197.79706 -217.18889 553.0
-193.56801 -216.79614 552.0
-190.0403 -217.18889 553.0
-186.49858 -217.58165 554.0
-182.94281 -217.97438 555.0
-179.69563 -218.75989 557.0
-176.10481 -219.15263 558.0
-173.11714 -220.33087 561.0
-268.04962 -195.88242 490.0
-265.1531 -196.28217 491.0
-263.3086 -197.48145 494.0
-260.896 -198.28096 496.0
-258.97437 -199.48026 499.0
-245.78928 -212.27257 531.0
-242.06522 -212.27257 531.0
-238.78998 -212.67233 532.0
-234.61705 -212.27257 531.0
-231.32779 -212.67233 532.0
-228.02452 -213.0721 533.0
-224.70721 -213.47185 534.0
-221.78967 -214.27136 536.0
-218.4373 -214.67113 537.0
-215.8704 -215.8704 540.0
-207.53856 -219.0685 548.0
-204.06699 -219.46826 549.0
-200.21663 -219.46826 549.0
-196.72401 -219.868 550.0
-192.86667 -219.868 550.0
-189.69666 -220.66753 552.0
-186.49858 -221.46706 554.0
-182.94281 -221.8668 555.0
-179.69563 -222.66634 557.0
-176.10481 -223.0661 558.0
-266.95554 -198.50539 488.0
-264.61307 -199.31894 490.0
-261.70953 -199.72572 491.0
-260.896 -201.75958 496.0
-258.45535 -202.57314 498.0
-244.86353 -215.18309 529.0
-241.15347 -215.18309 529.0
-237.44344 -215.18309 529.0
-233.73338 -215.18309 529.0
-230.45815 -215.58989 530.0
-227.16888 -215.99663 531.0
-224.70721 -217.21696 534.0
-221.37587 -217.62375 535.0
-211.38188 -222.91179 548.0
-207.15985 -222.505 547.0
-203.69527 -222.91179 548.0
-199.85194 -222.91179 548.0
-196.00865 -222.91179 548.0
-192.86667 -223.72534 550.0
-189.69666 -224.5389 552.0
-186.49858 -225.35242 554.0
-182.61316 -225.35242 554.0
-266.4085 -201.5141 487.0
-264.07303 -202.34169 489.0
-261.70953 -203.16927 491.0
-260.37 -204.8244 495.0
-258.97437 -206.47955 499.0
-248.10368 -218.47937 528.0
-244.40065 -218.47937 528.0
-240.24174 -218.06558 527.0
-236.54572 -218.06558 527.0
-233.73338 -218.89316 529.0
-230.0233 -218.89316 529.0
-227.16888 -219.72073 531.0
-224.70721 -220.9621 534.0
-214.43968 -225.92754 546.0
-210.61041 -225.92754 546.0
-206.78114 -225.92754 546.0
-202.95184 -225.92754 546.0
-199.12256 -225.92754 546.0
-195.65097 -226.34132 547.0
-192.86667 -227.58266 550.0
-189.353 -227.99644 551.0
-186.49858 -229.23781 554.0

