ply
format ascii 1.0
comment made by @arthurmuchir
element vertex 873
property float x
property float y
property float z
end_header
-147.91121 -112.8796 555.0
-144.27829 -113.082985 556.0
-156.25706 -117.1928 557.0
-152.35065 -117.1928 557.0
-147.91121 -116.772 555.0
-142.20235 -115.2992 548.0
-139.11649 -115.9304 551.0
-135.74307 -116.351204 553.0
-133.77232 -118.0344 561.0
-160.1635 -121.09922 557.0
-156.25706 -121.09922 557.0
-152.35065 -121.09922 557.0
-144.18011 -117.62061 541.0
-140.90488 -118.055435 543.0
-137.85408 -118.70768 546.0
-135.25214 -119.79474 551.0
-132.81851 -121.09922 557.0
-169.48422 -126.12778 562.0
-165.24817 -125.90335 561.0
-159.87595 -124.78123 556.0
-156.25706 -125.005646 557.0
-146.88025 -120.51712 537.0
-143.64711 -120.965965 539.0
-140.1264 -121.190384 540.0
-136.59169 -121.414825 541.0
-134.02481 -122.53695 546.0
-131.14934 -123.43466 550.0
-128.21777 -124.33237 554.0
-165.54272 -130.06927 562.0
-157.28802 -126.59767 547.0
-155.97653 -128.68063 556.0
-144.6921 -122.431755 529.0
-141.24855 -122.663185 530.0
-138.56944 -123.58895 534.0
-136.3392 -124.977585 540.0
-133.53387 -125.90335 544.0
-130.19553 -126.366234 546.0
-127.292015 -127.291985 550.0
-123.883514 -127.75487 552.0
-120.88181 -128.68063 556.0
-117.6136 -129.37495 559.0
-114.09992 -129.83783 561.0
-174.21121 -128.76482 540.0
-170.42401 -128.76482 540.0
-167.56256 -129.48018 543.0
-164.05591 -129.71863 544.0
-160.24063 -129.71863 544.0
-156.42538 -129.71863 544.0
-152.89067 -129.95708 545.0
-143.598 -125.18801 525.0
-140.44902 -125.66492 527.0
-137.27197 -126.14182 529.0
-135.32928 -127.811005 536.0
-132.552 -128.76482 540.0
-129.24171 -129.24171 542.0
-125.671936 -129.48018 543.0
-122.536964 -130.19553 546.0
-119.79475 -131.3878 551.0
-116.772 -132.34161 555.0
-113.89654 -133.53389 560.0
-188.65868 -132.06107 538.0
-184.8855 -132.06107 538.0
-181.11234 -132.06107 538.0
-177.66876 -132.30655 539.0
-174.21121 -132.55202 540.0
-170.42401 -132.55202 540.0
-166.9454 -132.79747 541.0
-163.15118 -132.79747 541.0
-159.35696 -132.79747 541.0
-155.56274 -132.79747 541.0
-146.15787 -127.888145 521.0
-142.77745 -128.1336 522.0
-139.91602 -128.87001 525.0
-136.75299 -129.36095 527.0
-134.57184 -130.83374 533.0
-131.8156 -131.81561 537.0
-128.2879 -132.06107 538.0
-124.74617 -132.30655 539.0
-121.63925 -133.04294 542.0
-118.70768 -134.02481 546.0
-116.351204 -135.74307 553.0
-113.48977 -136.97041 558.0
-109.96908 -137.46135 560.0
-194.74623 -134.82433 534.0
-191.71648 -135.32928 536.0
-187.95734 -135.32928 536.0
-183.85454 -135.0768 535.0
-180.43906 -135.32928 536.0
-177.00952 -135.58177 537.0
-173.88858 -136.08673 539.0
-170.42401 -136.3392 540.0
-166.63681 -136.3392 540.0
-162.84961 -136.3392 540.0
-159.06241 -136.3392 540.0
-155.56274 -136.59169 541.0
-145.5968 -131.03712 519.0
-141.68336 -130.78465 518.0
-138.58348 -131.2896 520.0
-136.4935 -132.80449 526.0
-133.8144 -133.8144 530.0
-130.58827 -134.31937 532.0
-127.33409 -134.82433 534.0
-123.82041 -135.0768 535.0
-120.96597 -136.08673 539.0
-118.27285 -137.34914 544.0
-114.8784 -137.85408 546.0
-113.08299 -140.37888 556.0
-198.11967 -138.30995 533.0
-194.74623 -138.56944 534.0
-190.64345 -138.30995 533.0
-186.55467 -138.05046 532.0
-183.16724 -138.30995 533.0
-179.76578 -138.56944 534.0
-176.35027 -138.82893 535.0
-173.24336 -139.34792 537.0
-169.7928 -139.6074 538.0
-166.32823 -139.86691 539.0
-162.84961 -140.1264 540.0
-159.06241 -140.1264 540.0
-155.8503 -140.64539 542.0
-145.31627 -134.41756 518.0
-141.40985 -134.15807 517.0
-138.05048 -134.41756 518.0
-136.4935 -136.4935 526.0
-133.56192 -137.27197 529.0
-130.09734 -137.53146 530.0
-126.85718 -138.05046 532.0
-123.58897 -138.56944 534.0
-120.51712 -139.34792 537.0
-117.403206 -140.1264 540.0
-115.088806 -141.94286 547.0
-197.74796 -141.78154 532.0
-193.28748 -141.24854 530.0
-189.21272 -140.98203 529.0
-185.50267 -140.98203 529.0
-182.13628 -141.24854 530.0
-179.42914 -142.04805 533.0
-176.02063 -142.31456 534.0
-172.92075 -142.84758 536.0
-169.4772 -143.11409 537.0
-166.32823 -143.6471 539.0
-162.84961 -143.9136 540.0
-159.06241 -143.9136 540.0
-156.13785 -144.71312 543.0
-152.89067 -145.24612 545.0
-141.40985 -137.78394 517.0
-139.91602 -139.916 525.0
-136.75299 -140.449 527.0
-133.56192 -140.98203 529.0
-130.09734 -141.24854 530.0
-126.61873 -141.51503 531.0
-123.35754 -142.04805 533.0
-120.51712 -143.11409 537.0
-117.62061 -144.1801 541.0
-115.930405 -146.84518 551.0
-112.47284 -147.37819 553.0
-200.3429 -144.69206 529.0
-195.88943 -144.14503 527.0
-192.19339 -144.14503 527.0
-188.49736 -144.14503 527.0
-184.80135 -144.14503 527.0
-181.79263 -144.69206 529.0
-178.4192 -144.9656 530.0
-175.36139 -145.51263 532.0
-172.92075 -146.60672 536.0
-169.4772 -146.88023 537.0
-166.32823 -147.42728 539.0
-162.84961 -147.7008 540.0
-159.94608 -148.52135 543.0
-159.30086 -151.53008 554.0
-155.696 -151.8036 555.0
-143.87154 -143.87152 526.0
-140.18251 -143.87152 526.0
-136.75299 -144.14503 527.0
-133.30943 -144.41855 528.0
-130.09734 -144.9656 530.0
-126.85718 -145.51263 532.0
-123.35754 -145.78615 533.0
-120.51712 -146.88023 537.0
-117.83803 -148.24783 542.0
-115.2992 -149.88895 548.0
-112.06606 -150.70952 551.0
-108.79083 -151.53008 554.0
-199.58545 -147.84106 527.0
-195.14601 -147.27998 525.0
-191.464 -147.27998 525.0
-188.13968 -147.56053 526.0
-184.45067 -147.56053 526.0
-181.10532 -147.84106 527.0
-178.08258 -148.40213 529.0
-174.70213 -148.68266 530.0
-172.59814 -150.08533 535.0
-169.7928 -150.92693 538.0
-166.63681 -151.48799 540.0
-164.65904 -153.17119 546.0
-162.89168 -155.13493 553.0
-159.30086 -155.41545 554.0
-155.97653 -155.97653 556.0
-143.598 -147.27998 525.0
-139.91602 -147.27998 525.0
-136.4935 -147.56053 526.0
-133.30943 -148.12158 528.0
-130.09734 -148.68266 530.0
-127.095634 -149.52426 533.0
-123.58897 -149.8048 534.0
-119.84384 -149.8048 534.0
-117.403206 -151.48799 540.0
-115.088806 -153.45174 547.0
-111.86267 -154.29333 550.0
-108.79083 -155.41545 554.0
-206.58475 -151.24954 526.0
-202.89574 -151.24954 526.0
-198.4493 -150.67445 524.0
-194.4026 -150.38689 523.0
-191.0993 -150.67445 524.0
-187.42432 -150.67445 524.0
-184.1 -150.96199 525.0
-180.76167 -151.24954 526.0
-177.74594 -151.82462 528.0
-174.70213 -152.39972 530.0
-172.27551 -153.54991 534.0
-169.1616 -154.125 536.0
-166.9454 -155.56273 541.0
-164.96063 -157.28801 547.0
-162.59712 -158.72575 552.0
-159.30086 -159.30084 554.0
-155.97653 -159.87593 556.0
-143.3245 -150.67445 524.0
-139.91602 -150.96199 525.0
-136.234 -150.96199 525.0
-132.80449 -151.24954 526.0
-129.6064 -151.82462 528.0
-125.903366 -151.82462 528.0
-122.43177 -152.11218 529.0
-119.39498 -152.97481 532.0
-116.53355 -154.125 536.0
-114.4576 -156.42537 544.0
-111.659294 -157.8631 549.0
-108.398094 -158.72575 552.0
-209.47423 -154.34944 524.0
-206.192 -154.64401 525.0
-201.73854 -154.0549 523.0
-197.31314 -153.46576 521.0
-193.65918 -153.46576 521.0
-190.00523 -153.46576 521.0
-186.70897 -153.76033 522.0
-183.74934 -154.34944 524.0
-180.418 -154.64401 525.0
-177.07265 -154.93857 526.0
-174.3725 -155.82225 529.0
-171.95291 -157.00049 533.0
-169.1616 -157.88417 536.0
-166.63681 -159.06241 540.0
-165.86534 -162.00801 550.0
-162.89168 -162.8917 553.0
-159.58841 -163.48082 555.0
-156.25706 -164.06993 557.0
-143.3245 -154.34944 524.0
-139.6495 -154.34944 524.0
-135.71501 -154.0549 523.0
-132.04704 -154.0549 523.0
-128.87001 -154.64401 525.0
-125.42646 -154.93857 526.0
-122.20033 -155.5277 528.0
-118.94613 -156.1168 530.0
-116.31614 -157.58961 535.0
-113.8264 -159.35696 541.0
-111.25252 -161.12433 547.0
-108.20171 -162.30257 551.0
-209.47423 -158.02443 524.0
-205.40652 -157.72285 523.0
-200.96707 -157.11972 521.0
-197.31314 -157.11972 521.0
-193.28748 -156.81815 520.0
-189.64053 -156.81815 520.0
-186.35127 -157.11972 521.0
-183.39867 -157.72285 523.0
-180.07436 -158.02443 524.0
-176.73601 -158.32602 525.0
-174.3725 -159.53229 529.0
-172.27551 -161.04016 534.0
-169.4772 -161.94489 537.0
-166.63681 -162.84961 540.0
-166.16692 -166.16692 551.0
-162.89168 -166.77007 553.0
-159.58841 -167.37321 555.0
-156.25706 -167.97635 557.0
-142.77745 -157.42128 522.0
-138.84998 -157.11972 521.0
-135.45552 -157.42128 522.0
-131.79456 -157.42128 522.0
-128.37907 -157.72285 523.0
-125.188 -158.32602 525.0
-121.968895 -158.92915 527.0
-118.7217 -159.53229 529.0
-116.09872 -161.04016 534.0
-208.67471 -161.08224 522.0
-204.62102 -160.77367 521.0
-200.58134 -160.46507 520.0
-196.5557 -160.15648 519.0
-192.54407 -159.8479 518.0
-189.27583 -160.15648 519.0
-185.9936 -160.46507 520.0
-182.69734 -160.77367 521.0
-179.7307 -161.39084 523.0
-176.73601 -162.008 525.0
-174.3725 -163.24236 529.0
-171.95291 -164.4767 533.0
-169.1616 -165.40247 536.0
-168.48834 -168.48831 546.0
-165.86534 -169.72267 550.0
-162.89168 -170.64844 553.0
-159.30086 -170.95702 554.0
-155.97653 -171.57419 556.0
-141.40985 -159.5393 517.0
-138.05048 -159.8479 518.0
-135.19603 -160.77367 521.0
-131.54208 -160.77367 521.0
-128.37907 -161.39084 523.0
-125.188 -162.008 525.0
-122.20033 -162.93376 528.0
-118.7217 -163.24236 529.0
-212.3357 -164.7432 522.0
-208.27496 -164.4276 521.0
-203.83553 -163.7964 519.0
-199.42413 -163.1652 517.0
-195.79825 -163.1652 517.0
-192.17236 -163.1652 517.0
-188.54645 -163.1652 517.0
-185.63593 -163.7964 519.0
-182.69734 -164.4276 521.0
-179.7307 -165.0588 523.0
-176.73601 -165.69 525.0
-174.3725 -166.9524 529.0
-171.95291 -168.2148 533.0
-171.6864 -171.6864 544.0
-168.48834 -172.3176 546.0
-165.86534 -173.58 550.0
-162.59712 -174.2112 552.0
-159.01332 -174.5268 553.0
-155.41547 -174.8424 554.0
-141.40985 -163.1652 517.0
-138.05048 -163.4808 518.0
-135.19603 -164.4276 521.0
-131.79456 -164.7432 522.0
-128.62454 -165.3744 524.0
-125.42646 -166.0056 526.0
-122.663216 -167.268 530.0
-120.292694 -169.1616 536.0
-216.82423 -169.0494 524.0
-211.92892 -168.08154 521.0
-207.07568 -167.11371 518.0
-203.05003 -166.79109 517.0
-199.42413 -166.79109 517.0
-195.79825 -166.79109 517.0
-192.17236 -166.79109 517.0
-188.54645 -166.79109 517.0
-185.63593 -167.43633 519.0
-182.69734 -168.08154 521.0
-179.7307 -168.72676 523.0
-177.07265 -169.69461 526.0
-174.3725 -170.66245 529.0
-172.27551 -172.27551 534.0
-171.0552 -174.85643 542.0
-168.48834 -176.14688 546.0
-165.56378 -177.11472 549.0
-162.30257 -177.75993 551.0
-158.4382 -177.75993 551.0
-154.29333 -177.43733 550.0
-142.50392 -168.08154 521.0
-138.58348 -167.75893 520.0
-135.19603 -168.08154 521.0
-132.04704 -168.72676 523.0
-128.87001 -169.372 525.0
-125.903366 -170.33983 528.0
-123.35754 -171.95291 533.0
-120.06826 -172.59813 535.0
-116.75096 -173.24335 537.0
-221.3408 -173.38362 526.0
-216.82423 -172.72437 524.0
-211.52214 -171.40585 520.0
-206.67592 -170.41698 517.0
-203.05003 -170.41698 517.0
-199.42413 -170.41698 517.0
-195.79825 -170.41698 517.0
-192.17236 -170.41698 517.0
-188.54645 -170.41698 517.0
-185.27824 -170.74661 518.0
-182.69734 -171.73549 521.0
-179.7307 -172.39474 523.0
-177.07265 -173.38362 526.0
-174.3725 -174.37251 529.0
-172.59814 -176.35027 535.0
-171.3708 -178.98727 543.0
-168.17973 -179.64653 545.0
-164.65904 -179.97615 546.0
-161.12431 -180.30577 547.0
-157.57558 -180.6354 548.0
-153.73227 -180.6354 548.0
-142.50392 -171.73549 521.0
-138.84998 -171.73549 521.0
-135.19603 -171.73549 521.0
-131.79456 -172.06512 522.0
-128.62454 -172.72437 524.0
-125.42646 -173.38362 526.0
-122.43177 -174.37251 529.0
-119.84384 -176.02063 534.0
-116.75096 -177.00952 537.0
-252.28365 -178.08255 529.0
-248.57356 -178.08255 529.0
-225.02982 -177.07263 526.0
-220.92001 -176.736 525.0
-215.99666 -175.72607 522.0
-211.52214 -175.05278 520.0
-207.07568 -174.3795 518.0
-203.05003 -174.04288 517.0
-199.0384 -173.70624 516.0
-195.0408 -173.36958 515.0
-192.17236 -174.04288 517.0
-188.54645 -174.04288 517.0
-185.27824 -174.3795 518.0
-182.69734 -175.38943 521.0
-180.07436 -176.39935 524.0
-177.40929 -177.40927 527.0
-174.70213 -178.41919 530.0
-172.59814 -180.10239 535.0
-171.0552 -182.45886 542.0
-167.56256 -182.7955 543.0
-164.35747 -183.46878 545.0
-160.82976 -183.80544 546.0
-157.00047 -183.80544 546.0
-146.15787 -175.38943 521.0
-142.50392 -175.38943 521.0
-138.58348 -175.05278 520.0
-134.93652 -175.05278 520.0
-131.54208 -175.38943 521.0
-127.88814 -175.38943 521.0
-125.42646 -177.07263 526.0
-122.43177 -178.08255 529.0
-119.84384 -179.76575 534.0
-116.53355 -180.43904 536.0
-256.0147 -174.23225 507.0
-254.45074 -175.60686 511.0
-253.81255 -177.6688 517.0
-250.18665 -177.6688 517.0
-247.51459 -178.3561 519.0
-245.28432 -179.38705 522.0
-246.71506 -183.16724 533.0
-242.97694 -183.16724 533.0
-232.8497 -181.10532 527.0
-228.28401 -180.41801 525.0
-224.602 -180.41801 525.0
-220.07841 -179.73071 523.0
-215.58287 -179.0434 521.0
-211.52214 -178.69974 520.0
-207.07568 -178.01244 518.0
-203.05003 -177.6688 517.0
-198.65268 -176.98149 515.0
-195.0408 -176.98149 515.0
-192.17236 -177.6688 517.0
-188.54645 -177.6688 517.0
-185.63593 -178.3561 519.0
-182.69734 -179.0434 521.0
-180.418 -180.41801 525.0
-177.74594 -181.44897 528.0
-174.70213 -182.13629 530.0
-173.24336 -184.54185 537.0
-170.42401 -185.57281 540.0
-166.63681 -185.57281 540.0
-163.45276 -186.26012 542.0
-160.24063 -186.94742 544.0
-149.23672 -178.3561 519.0
-145.5968 -178.3561 519.0
-142.23041 -178.69974 520.0
-138.31697 -178.3561 519.0
-134.67703 -178.3561 519.0
-131.28961 -178.69974 520.0
-127.88814 -179.0434 521.0
-125.188 -180.41801 525.0
-122.20033 -181.44897 528.0
-119.84384 -183.5109 534.0
-257.02463 -178.48935 509.0
-254.45074 -179.19067 511.0
-251.84882 -179.89201 513.0
-248.7349 -180.24268 514.0
-246.08385 -180.94402 516.0
-242.93486 -181.29468 517.0
-243.93776 -184.80135 527.0
-240.6976 -185.15201 528.0
-236.54572 -184.80135 527.0
-231.966 -184.1 525.0
-228.28401 -184.1 525.0
-223.74638 -183.39867 523.0
-219.2368 -182.69734 521.0
-215.16907 -182.34666 520.0
-211.11539 -181.99602 519.0
-207.07568 -181.64534 518.0
-203.05003 -181.29468 517.0
-198.65268 -180.59334 515.0
-195.0408 -180.59334 515.0
-192.17236 -181.29468 517.0
-188.54645 -181.29468 517.0
-185.9936 -182.34666 520.0
-183.39867 -183.39867 523.0
-180.418 -184.1 525.0
-177.74594 -185.15201 528.0
-175.36139 -186.55467 532.0
-172.92075 -187.95734 536.0
-169.4772 -188.30801 537.0
-166.32823 -189.00934 539.0
-162.84961 -189.36002 540.0
-152.87663 -181.99602 519.0
-149.23672 -181.99602 519.0
-145.5968 -181.99602 519.0
-141.68336 -181.64534 518.0
-138.31697 -181.99602 519.0
-134.67703 -181.99602 519.0
-131.03712 -181.99602 519.0
-127.64267 -182.34666 520.0
-269.312 -183.13217 512.0
-265.2022 -182.77449 511.0
-261.1064 -182.4168 510.0
-258.03458 -182.77449 511.0
-254.45074 -182.77449 511.0
-249.88507 -182.05913 509.0
-246.79921 -182.4168 510.0
-243.69933 -182.77449 511.0
-241.99507 -184.2052 515.0
-243.01201 -187.782 525.0
-238.87415 -187.42433 524.0
-234.7503 -187.06665 523.0
-231.08234 -187.06665 523.0
-226.97952 -186.70897 522.0
-222.89075 -186.35129 521.0
-218.81601 -185.9936 520.0
-214.7553 -185.63593 519.0
-210.7086 -185.27824 518.0
-206.67592 -184.92056 517.0
-202.65727 -184.56288 516.0
-199.0384 -184.56288 516.0
-195.41954 -184.56288 516.0
-192.17236 -184.92056 517.0
-188.91115 -185.27824 518.0
-185.9936 -185.9936 520.0
-183.39867 -187.06665 523.0
-180.418 -187.782 525.0
-178.08258 -189.21274 529.0
-175.36139 -190.28577 532.0
-172.27551 -191.00113 534.0
-168.84601 -191.3588 535.0
-165.40247 -191.71648 536.0
-161.94489 -192.07416 537.0
-158.17873 -192.07416 537.0
-149.52428 -185.9936 520.0
-145.87733 -185.9936 520.0
-142.23041 -185.9936 520.0
-138.84998 -186.35129 521.0
-134.93652 -185.9936 520.0
-137.85408 -195.29329 546.0
-134.27028 -195.65097 547.0
-272.90283 -186.72299 512.0
-268.786 -186.35829 511.0
-264.1642 -185.6289 509.0
-260.08246 -185.2642 508.0
-257.02463 -185.6289 509.0
-251.96101 -184.53482 506.0
-247.92134 -184.17014 505.0
-244.86354 -184.53482 506.0
-241.7917 -184.89952 507.0
-245.28432 -190.36992 522.0
-241.16048 -190.00522 521.0
-237.50655 -190.00522 521.0
-233.8526 -190.00522 521.0
-229.7568 -189.64053 520.0
-226.10988 -189.64053 520.0
-222.03513 -189.27585 519.0
-217.5536 -188.54646 517.0
-213.92772 -188.54646 517.0
-210.30183 -188.54646 517.0
-205.8764 -187.81708 515.0
-202.26454 -187.81708 515.0
-198.65268 -187.81708 515.0
-195.41954 -188.18176 516.0
-192.17236 -188.54646 517.0
-188.91115 -188.91115 518.0
-185.9936 -189.64053 520.0
-183.74934 -191.0993 524.0
-180.76167 -191.82869 526.0
-178.08258 -192.92278 529.0
-174.70213 -193.28748 530.0
-171.6303 -194.01686 532.0
-168.53041 -194.74625 534.0
-164.7853 -194.74625 534.0
-161.04018 -194.74625 534.0
-157.88416 -195.47562 536.0
-154.41257 -195.84032 537.0
-146.15787 -190.00522 521.0
-147.7008 -196.9344 540.0
-144.44662 -197.66379 542.0
-141.42386 -198.75787 545.0
-137.85408 -199.12256 546.0
-134.27028 -199.48726 547.0
-276.25522 -187.71187 505.0
-273.79352 -188.45528 507.0
-270.23776 -188.45528 507.0
-266.156 -188.08357 506.0
-263.12625 -188.45528 507.0
-255.47472 -185.48163 499.0
-251.97504 -185.48163 499.0
-248.97334 -185.85333 500.0
-246.44855 -186.59674 502.0
-242.92786 -186.59674 502.0
-240.36098 -187.34015 504.0
-244.34454 -193.28748 520.0
-240.6976 -193.28748 520.0
-237.05067 -193.28748 520.0
-232.9549 -192.91576 519.0
-228.87314 -192.54405 518.0
-224.80539 -192.17235 517.0
-221.1795 -192.17235 517.0
-217.5536 -192.17235 517.0
-213.51393 -191.80063 516.0
-209.48828 -191.42892 515.0
-205.47664 -191.05722 514.0
-201.87178 -191.05722 514.0
-198.65268 -191.42892 515.0
-195.79825 -192.17235 517.0
-192.17236 -192.17235 517.0
-188.91115 -192.54405 518.0
-186.35127 -193.65918 521.0
-183.74934 -194.77429 524.0
-180.418 -195.146 525.0
-177.74594 -196.26112 528.0
-174.3725 -196.63283 529.0
-170.98508 -197.00453 530.0
-167.268 -197.00453 530.0
-164.16812 -197.74794 532.0
-160.7386 -198.11964 533.0
-157.29503 -198.49135 534.0
-154.12502 -199.23477 536.0
-150.92694 -199.9782 538.0
-147.7008 -200.7216 540.0
-144.44662 -201.46501 542.0
-141.68336 -202.95183 546.0
-137.85408 -202.95183 546.0
-275.7082 -190.87486 504.0
-272.17343 -190.87486 504.0
-268.1057 -190.49615 503.0
-262.474 -188.98128 499.0
-257.9364 -188.22383 497.0
-254.45076 -188.22383 497.0
-251.47008 -188.60255 498.0
-247.97745 -188.60255 498.0
-244.97574 -188.98128 499.0
-241.96 -189.36 500.0
-239.40717 -190.11743 502.0
-242.93486 -195.79823 517.0
-239.30896 -195.79823 517.0
-235.68307 -195.79823 517.0
-232.05719 -195.79823 517.0
-228.43129 -195.79823 517.0
-224.37056 -195.41953 516.0
-220.75168 -195.41953 516.0
-216.712 -195.0408 515.0
-212.68636 -194.66206 514.0
-209.08151 -194.66206 514.0
-205.47664 -194.66206 514.0
-202.26454 -195.0408 515.0
-198.65268 -195.0408 515.0
-195.79825 -195.79823 517.0
-192.17236 -195.79823 517.0
-189.27583 -196.55566 519.0
-186.35127 -197.31311 521.0
-183.39867 -198.07056 523.0
-180.418 -198.828 525.0
-177.07265 -199.20671 526.0
-174.04288 -199.96416 528.0
-170.66246 -200.34286 529.0
-167.268 -200.7216 530.0
-163.55093 -200.7216 530.0
-160.43703 -201.47903 532.0
-157.00047 -201.85776 533.0
-153.83748 -202.6152 535.0
-150.64641 -203.37263 537.0
-147.7008 -204.5088 540.0
-144.44662 -205.26624 542.0
-272.973 -192.48093 499.0
-268.39325 -191.70946 497.0
-264.3746 -191.32373 496.0
-259.84402 -190.55226 494.0
-256.37943 -190.55226 494.0
-253.4268 -190.93799 495.0
-250.46016 -191.32373 496.0
-246.98155 -191.32373 496.0
-243.99388 -191.70946 497.0
-241.47609 -192.48093 499.0
-237.97646 -192.48093 499.0
-242.46497 -199.03839 516.0
-237.92032 -198.26692 514.0
-234.77135 -198.65266 515.0
-231.15947 -198.65266 515.0
-227.10579 -198.26692 514.0
-223.5009 -198.26692 514.0
-219.89606 -198.26692 514.0
-216.29121 -198.26692 514.0
-212.68636 -198.26692 514.0
-209.08151 -198.26692 514.0
-205.8764 -198.65266 515.0
-202.65727 -199.03839 516.0
-199.42413 -199.42413 517.0
-195.79825 -199.42413 517.0
-192.54407 -199.80986 518.0
-189.64053 -200.58133 520.0
-186.35127 -200.96706 521.0
-183.048 -201.35278 522.0
-180.07436 -202.12425 524.0
-176.73601 -202.51 525.0
-173.38364 -202.89574 526.0
-170.01723 -203.28146 527.0
-166.63681 -203.66719 528.0
-163.24236 -204.05293 529.0
-159.83388 -204.43866 530.0
-157.00047 -205.59586 533.0
-153.83748 -206.36732 535.0
-150.92694 -207.52454 538.0
-148.24785 -209.06746 542.0
-270.2378 -194.01685 494.0
-266.23315 -193.6241 493.0
-262.77557 -193.6241 493.0
-259.31802 -193.6241 493.0
-255.86043 -193.6241 493.0
-252.91486 -194.01685 494.0
-249.45024 -194.01685 494.0
-246.48361 -194.40959 495.0
-243.50294 -194.80234 496.0
-240.50826 -195.19508 497.0
-237.49954 -195.58783 498.0
-234.47676 -195.98058 499.0
-236.99457 -201.08629 512.0
-233.8596 -201.47902 513.0
-230.26176 -201.47902 513.0
-226.66394 -201.47902 513.0
-223.06607 -201.47902 513.0
-219.89606 -201.87178 514.0
-216.29121 -201.87178 514.0
-212.68636 -201.87178 514.0
-209.48828 -202.26451 515.0
-206.27617 -202.65727 516.0
-203.05003 -203.05 517.0
-199.42413 -203.05 517.0
-195.79825 -203.05 517.0
-192.54407 -203.44276 518.0
-189.64053 -204.22826 520.0
-186.35127 -204.621 521.0
-182.69734 -204.621 521.0
-179.7307 -205.4065 523.0
-176.73601 -206.19199 525.0
-173.38364 -206.58475 526.0
-170.01723 -206.97748 527.0
-166.32121 -206.97748 527.0
-163.24236 -207.76297 529.0
-159.83388 -208.15572 530.0
-157.00047 -209.33397 533.0
-154.12502 -210.51219 536.0
-151.488 -212.08319 540.0
-267.5026 -195.48265 489.0
-264.07303 -195.48265 489.0
-261.70953 -196.28217 491.0
-258.26602 -196.28217 491.0
-255.34145 -196.68193 492.0
-252.91486 -197.48145 494.0
-247.93536 -196.28217 491.0
-244.4918 -196.28217 491.0
-241.04828 -196.28217 491.0
-238.08865 -196.68193 492.0
-235.59192 -197.48145 494.0
-232.1273 -197.48145 494.0
-236.53168 -204.27736 511.0
-232.94788 -204.27736 511.0
-229.36407 -204.27736 511.0
-226.22209 -204.67712 512.0
-223.06607 -205.07689 513.0
-219.89606 -205.47665 514.0
-216.29121 -205.47665 514.0
-213.51393 -206.27617 516.0
-210.30183 -206.67593 517.0
-206.67592 -206.67593 517.0
-203.05003 -206.67593 517.0
-199.80988 -207.0757 518.0
-196.5557 -207.47545 519.0
-193.28748 -207.87521 520.0
-189.64053 -207.87521 520.0
-186.35127 -208.27496 521.0
-182.69734 -208.27496 521.0
-179.7307 -209.0745 523.0
-176.39938 -209.47424 524.0
-173.054 -209.87401 525.0
-170.01723 -210.67352 527.0
-166.95241 -211.47305 529.0
-163.24236 -211.47305 529.0
-160.13545 -212.27257 531.0
-157.29503 -213.47185 534.0
-154.41257 -214.67113 537.0
-266.4085 -198.09862 487.0
-263.53302 -198.50539 488.0
-260.64352 -198.91217 489.0
-257.74002 -199.31894 490.0
-254.82248 -199.72572 491.0
-249.843 -198.50539 488.0
-245.91553 -198.09862 487.0
-242.99799 -198.50539 488.0
-240.0664 -198.91217 489.0
-236.6369 -198.91217 489.0
-233.68428 -199.31894 490.0
-230.71764 -199.72572 491.0
-235.60593 -207.04764 509.0
-232.94788 -207.86118 511.0
-229.36407 -207.86118 511.0
-226.66394 -208.67473 513.0
-223.5009 -209.0815 514.0
-220.32387 -209.48827 515.0
-217.5536 -210.30182 517.0
-213.92772 -210.30182 517.0
-210.7086 -210.70859 518.0
-207.07568 -210.70859 518.0
-203.83553 -211.11537 519.0
-200.58134 -211.52214 520.0
-196.9344 -211.52214 520.0
-193.28748 -211.52214 520.0
-189.64053 -211.52214 520.0
-186.35127 -211.92892 521.0
-182.69734 -211.92892 521.0
-179.7307 -212.74246 523.0
-176.39938 -213.14923 524.0
-173.054 -213.55602 525.0
-170.01723 -214.36955 527.0
-166.95241 -215.18309 529.0
-163.55093 -215.58989 530.0
-161.04018 -217.21696 534.0
-265.86145 -201.10031 486.0
-261.3729 -200.27275 484.0
-257.97845 -200.27275 484.0
-254.58401 -200.27275 484.0
-251.18956 -200.27275 484.0
-248.30708 -200.68654 485.0
-244.90561 -200.68654 485.0
-242.00208 -201.10031 486.0
-239.08455 -201.5141 487.0
-235.66905 -201.5141 487.0
-233.20738 -202.34169 489.0
-230.24774 -202.75548 490.0
-235.14305 -210.20364 508.0
-232.94788 -211.44499 511.0
-229.36407 -211.44499 511.0
-227.10579 -212.68636 514.0
-223.5009 -212.68636 514.0
-221.1795 -213.9277 517.0
-217.5536 -213.9277 517.0
-214.34149 -214.34149 518.0
-211.11539 -214.75528 519.0
-207.87521 -215.16907 520.0
-204.22827 -215.16907 520.0
-200.58134 -215.16907 520.0
-197.31314 -215.58284 521.0
-193.65918 -215.58284 521.0
-189.64053 -215.16907 520.0
-186.35127 -215.58284 521.0
-182.69734 -215.58284 521.0
-180.07436 -216.82422 524.0
-176.73601 -217.238 525.0
-173.71326 -218.06558 527.0
-170.66246 -218.89316 529.0
-166.95241 -218.89316 529.0

