ply
format ascii 1.0
comment made by @arthurmuchir
element vertex 1115
property float x
property float y
property float z
end_header
-91.87467 -77.17472 524.0
-88.368004 -77.32201 525.0
-94.455574 -79.92395 518.0
-91.69933 -80.69542 523.0
-87.863045 -80.54112 522.0
-84.524704 -80.84971 524.0
-80.8497 -80.84971 524.0
-98.08847 -83.556854 518.0
-94.455574 -83.556854 518.0
-90.998 -83.71816 519.0
-87.526405 -83.87946 520.0
-84.20209 -84.20208 522.0
-81.158295 -84.847305 526.0
-101.32864 -86.85312 516.0
-97.89912 -87.02144 517.0
-94.273224 -87.02144 517.0
-90.998 -87.35808 519.0
-87.526405 -87.52639 520.0
-84.04078 -87.69472 521.0
-104.74414 -90.29666 515.0
-100.935905 -90.12132 514.0
-97.52039 -90.29666 515.0
-94.09088 -90.47199 516.0
-90.82267 -90.822655 518.0
-87.35809 -90.99799 519.0
-108.14561 -93.72617 514.0
-104.54076 -93.72617 514.0
-100.935905 -93.72617 514.0
-97.33104 -93.72617 514.0
-94.273224 -94.27322 517.0
-90.64734 -94.27322 517.0
-87.02145 -94.27322 517.0
-67.91713 -98.10249 538.0
-64.14394 -98.10249 538.0
-60.482986 -98.28484 539.0
-111.31563 -96.95233 512.0
-107.72481 -96.95233 512.0
-103.930595 -96.76297 511.0
-100.54316 -96.95233 512.0
-97.33104 -97.33105 514.0
-94.273224 -97.89913 517.0
-90.64734 -97.89913 517.0
-71.15729 -101.11825 534.0
-67.41217 -101.11825 534.0
-63.78626 -101.30761 535.0
-60.482986 -102.06505 539.0
-114.68203 -100.34679 511.0
-110.44597 -99.75766 508.0
-107.304 -100.150406 510.0
-103.930595 -100.34679 511.0
-100.34678 -100.34679 511.0
-97.33104 -100.9359 514.0
-93.90854 -101.13227 515.0
-78.647514 -104.863365 534.0
-74.76214 -104.66699 533.0
-70.89078 -104.47062 532.0
-67.28593 -104.66699 533.0
-63.667038 -104.863365 534.0
-60.146347 -105.25611 536.0
-117.80297 -103.52382 509.0
-114.23317 -103.52382 509.0
-110.44597 -103.32043 508.0
-107.093605 -103.52382 509.0
-103.930595 -103.93059 511.0
-100.73953 -104.337364 513.0
-97.33104 -104.54075 514.0
-77.91112 -107.591545 529.0
-74.20107 -107.591545 529.0
-70.624275 -107.794945 530.0
-67.15969 -108.201706 532.0
-63.667038 -108.60848 534.0
-60.146347 -109.01526 536.0
-121.1343 -106.8832 508.0
-117.57153 -106.8832 508.0
-114.00874 -106.8832 508.0
-110.44597 -106.8832 508.0
-107.093605 -107.0936 509.0
-104.13398 -107.7248 512.0
-100.935905 -108.1456 514.0
-84.84731 -110.6704 526.0
-81.158295 -110.6704 526.0
-77.61656 -110.8808 527.0
-73.92053 -110.8808 527.0
-70.49102 -111.3016 529.0
-67.15969 -111.9328 532.0
-63.667038 -112.3536 534.0
-123.96067 -109.79373 505.0
-120.18049 -109.57632 504.0
-116.64577 -109.57632 504.0
-113.78432 -110.22855 507.0
-110.66338 -110.66339 509.0
-107.093605 -110.66339 509.0
-103.930595 -111.09821 511.0
-100.935905 -111.75045 514.0
-88.368004 -114.142 525.0
-84.68601 -114.142 525.0
-81.004 -114.142 525.0
-77.32201 -114.142 525.0
-73.780266 -114.35941 526.0
-70.49102 -115.01165 529.0
-67.15969 -115.663895 532.0
-123.469734 -112.88661 503.0
-119.94204 -112.88661 503.0
-116.64577 -113.11104 504.0
-113.55989 -113.55988 506.0
-110.66338 -114.23316 509.0
-107.304 -114.45759 510.0
-91.34867 -116.926285 521.0
-87.863045 -117.15072 522.0
-84.3634 -117.37514 523.0
-80.8497 -117.59956 524.0
-77.17471 -117.59956 524.0
-73.780266 -118.04842 526.0
-70.49102 -118.7217 529.0
-168.46727 -109.00823 471.0
-165.164 -109.00823 471.0
-162.20438 -109.23967 472.0
-159.56738 -109.70255 474.0
-156.9023 -110.165436 476.0
-154.20918 -110.6283 478.0
-123.22427 -116.18287 502.0
-119.70358 -116.18287 502.0
-116.64577 -116.64575 504.0
-113.55989 -117.108635 506.0
-110.44597 -117.5715 508.0
-107.304 -118.034386 510.0
-95.00262 -120.58024 521.0
-91.17334 -120.348785 520.0
-87.694725 -120.58024 521.0
-84.04078 -120.58024 521.0
-80.541115 -120.81167 522.0
-77.17471 -121.27455 524.0
-168.46727 -112.31153 471.0
-164.81334 -112.07308 470.0
-162.54803 -112.78844 473.0
-159.56738 -113.02689 474.0
-156.57268 -113.26534 475.0
-154.20918 -113.980705 478.0
-126.492485 -119.46513 501.0
-122.978806 -119.46513 501.0
-119.70358 -119.70359 502.0
-116.64577 -120.1805 504.0
-113.335464 -120.418945 505.0
-110.22856 -120.89585 507.0
-98.27784 -123.75729 519.0
-94.455574 -123.51884 518.0
-90.998 -123.75729 519.0
-87.526405 -123.99574 520.0
-84.04078 -124.2342 521.0
-80.541115 -124.47265 522.0
-77.027435 -124.711105 523.0
-171.40587 -115.36934 470.0
-167.39426 -114.87841 468.0
-163.76134 -114.63294 467.0
-161.86073 -115.614815 471.0
-159.23074 -116.10574 473.0
-156.57268 -116.59667 475.0
-154.20918 -117.33307 478.0
-130.26566 -123.22427 502.0
-126.492485 -122.97881 501.0
-122.978806 -122.97881 501.0
-119.70358 -123.22427 502.0
-116.64577 -123.71521 504.0
-113.335464 -123.96067 505.0
-110.22856 -124.451614 507.0
-101.525024 -126.90627 517.0
-97.89912 -126.90627 517.0
-94.273224 -126.90627 517.0
-90.64734 -126.90627 517.0
-87.526405 -127.64267 520.0
-84.04078 -127.888145 521.0
-80.541115 -128.1336 522.0
-170.67648 -118.160645 468.0
-167.39426 -118.160645 468.0
-164.112 -118.160645 468.0
-161.86073 -118.91808 471.0
-158.89409 -119.17056 472.0
-156.57268 -119.928 475.0
-133.78636 -126.744965 502.0
-130.00616 -126.492485 501.0
-126.492485 -126.492485 501.0
-122.978806 -126.492485 501.0
-119.70358 -126.744965 502.0
-116.41434 -126.997444 503.0
-113.335464 -127.5024 505.0
-101.32864 -130.27968 516.0
-97.33104 -129.77473 514.0
-93.90854 -130.0272 515.0
-90.64734 -130.53217 517.0
-87.35809 -131.03712 519.0
-83.87948 -131.2896 520.0
-48.413048 -134.06688 531.0
-175.81728 -122.74036 473.0
-170.67648 -121.44289 468.0
-167.39426 -121.44289 468.0
-164.81334 -121.96187 470.0
-161.86073 -122.22137 471.0
-158.89409 -122.48086 472.0
-156.24303 -122.99985 474.0
-140.26668 -129.74667 500.0
-136.4865 -129.48718 499.0
-132.98683 -129.48718 499.0
-129.48717 -129.48718 499.0
-126.240005 -129.74667 500.0
-122.978806 -130.00616 501.0
-119.70358 -130.26566 502.0
-107.9352 -133.12009 513.0
-104.13398 -132.8606 512.0
-100.73953 -133.12009 513.0
-97.33104 -133.37958 514.0
-93.90854 -133.63907 515.0
-90.64734 -134.15807 517.0
-87.02145 -134.15807 517.0
-83.71817 -134.67705 519.0
-59.36085 -137.27197 529.0
-55.756 -137.53146 530.0
-51.94075 -137.27197 529.0
-48.321877 -137.53146 530.0
-44.857277 -138.30995 533.0
-179.51329 -126.32415 474.0
-175.07385 -125.524635 471.0
-171.40587 -125.25813 470.0
-168.1096 -125.25813 470.0
-165.164 -125.524635 471.0
-162.20438 -125.79114 472.0
-159.23074 -126.05765 473.0
-156.24303 -126.32415 474.0
-141.76051 -131.38779 493.0
-139.14453 -132.1873 496.0
-136.21297 -132.72032 498.0
-132.72034 -132.72032 498.0
-129.48717 -132.98682 499.0
-126.240005 -133.25333 500.0
-122.978806 -133.51984 501.0
-119.70358 -133.78635 502.0
-111.75045 -136.98442 514.0
-107.9352 -136.71791 513.0
-103.930595 -136.1849 511.0
-100.54316 -136.45142 512.0
-97.33104 -136.98442 514.0
-93.72618 -136.98442 514.0
-90.64734 -137.78394 517.0
-87.02145 -137.78394 517.0
-66.65473 -140.71552 528.0
-62.951675 -140.71552 528.0
-59.24864 -140.71552 528.0
-55.650803 -140.98203 529.0
-51.94075 -140.98203 529.0
-48.321877 -141.24854 530.0
-44.857277 -142.04805 533.0
-178.75584 -129.10144 472.0
-175.07385 -128.82791 471.0
-171.40587 -128.5544 470.0
-168.46727 -128.82791 471.0
-165.51468 -129.10144 472.0
-162.20438 -129.10144 472.0
-159.56738 -129.64847 474.0
-145.51263 -135.11887 494.0
-142.04805 -135.11887 494.0
-138.58347 -135.11887 494.0
-135.1189 -135.11887 494.0
-131.9208 -135.3924 495.0
-129.22768 -136.21295 498.0
-125.98752 -136.48647 499.0
-122.978806 -137.03352 501.0
-119.70358 -137.30704 502.0
-111.09821 -139.76872 511.0
-107.093605 -139.22166 509.0
-103.52383 -139.22166 509.0
-100.34678 -139.76872 511.0
-96.76296 -139.76872 511.0
-93.72618 -140.58926 514.0
-69.95801 -143.598 525.0
-66.40225 -143.87152 526.0
-62.832447 -144.14503 527.0
-59.136425 -144.14503 527.0
-55.5456 -144.41855 528.0
-51.94075 -144.69206 529.0
-48.2307 -144.69206 529.0
-178.75584 -132.41173 472.0
-175.07385 -132.13118 471.0
-171.77057 -132.13118 471.0
-168.46727 -132.13118 471.0
-165.51468 -132.41173 472.0
-162.8917 -132.9728 474.0
-159.904 -133.25333 475.0
-157.4844 -139.98613 499.0
-152.44182 -138.58347 494.0
-148.67567 -138.30293 493.0
-144.92352 -138.02238 492.0
-141.76051 -138.30293 493.0
-138.58347 -138.58347 494.0
-135.1189 -138.58347 494.0
-131.9208 -138.86398 495.0
-128.7087 -139.14453 496.0
-125.98752 -139.98613 499.0
-122.73334 -140.26666 500.0
-119.70358 -140.82773 502.0
-116.87721 -141.66933 505.0
-113.55989 -141.94986 506.0
-110.22856 -142.2304 507.0
-106.8832 -142.51093 508.0
-103.52383 -142.79146 509.0
-100.34678 -143.35252 511.0
-96.76296 -143.35252 511.0
-81.158295 -147.56053 526.0
-77.17471 -146.99945 524.0
-73.49973 -146.99945 524.0
-69.6915 -146.71893 523.0
-66.149765 -146.99945 524.0
-62.593994 -147.27998 525.0
-59.02421 -147.56053 526.0
-55.5456 -148.12158 528.0
-51.842567 -148.12158 528.0
-185.76918 -136.00957 473.0
-182.06615 -135.72202 472.0
-177.99841 -135.14691 470.0
-175.07385 -135.43446 471.0
-172.13525 -135.72202 472.0
-168.82497 -135.72202 472.0
-165.51468 -135.72202 472.0
-162.8917 -136.2971 474.0
-159.904 -136.58466 475.0
-161.8467 -141.1854 491.0
-158.40314 -141.1854 491.0
-155.2752 -141.47295 492.0
-151.51607 -141.1854 491.0
-148.07251 -141.1854 491.0
-144.62897 -141.1854 491.0
-141.47296 -141.47295 492.0
-138.58347 -142.04805 494.0
-135.1189 -142.04805 494.0
-131.6543 -142.04805 494.0
-128.4492 -142.33559 495.0
-125.23008 -142.62314 496.0
-122.2424 -143.19823 498.0
-119.465126 -144.06087 501.0
-116.64577 -144.92351 504.0
-113.55989 -145.4986 506.0
-110.22856 -145.78615 507.0
-106.8832 -146.0737 508.0
-103.52383 -146.36125 509.0
-100.34678 -146.93634 511.0
-97.14167 -147.51143 513.0
-80.695404 -150.38689 523.0
-76.73288 -149.8118 521.0
-73.07893 -149.8118 521.0
-69.55824 -150.09935 522.0
-66.02353 -150.38689 523.0
-62.593994 -150.96199 525.0
-59.02421 -151.24954 526.0
-55.440403 -151.53708 527.0
-185.37643 -139.03233 472.0
-182.06615 -139.03233 472.0
-177.99841 -138.4432 470.0
-175.07385 -138.73776 471.0
-172.13525 -139.03233 472.0
-169.54031 -139.62144 474.0
-166.216 -139.62144 474.0
-162.8917 -139.62144 474.0
-158.08054 -144.33441 490.0
-154.3284 -144.03984 489.0
-151.20747 -144.33441 490.0
-147.77094 -144.33441 490.0
-144.62897 -144.62897 491.0
-141.47296 -144.92352 492.0
-138.30293 -145.2181 493.0
-134.84537 -145.2181 493.0
-131.6543 -145.51265 494.0
-128.18971 -145.51265 494.0
-124.72512 -145.51265 494.0
-121.75147 -146.10176 496.0
-118.98823 -146.98544 499.0
-116.18289 -147.86913 502.0
-113.11104 -148.45825 504.0
-110.01115 -149.04736 506.0
-106.672806 -149.34193 507.0
-103.320435 -149.63649 508.0
-87.35809 -152.87665 519.0
-83.87948 -153.17122 520.0
-80.23253 -153.17122 520.0
-76.5856 -153.17122 520.0
-72.93867 -153.17122 520.0
-69.42499 -153.46576 521.0
-65.77105 -153.46576 521.0
-62.593994 -154.64401 525.0
-185.37643 -142.34262 472.0
-181.29468 -141.73947 470.0
-177.99841 -141.73947 470.0
-175.07385 -142.04105 471.0
-172.13525 -142.34262 472.0
-169.54031 -142.94577 474.0
-166.56667 -143.24734 475.0
-163.23534 -143.24734 475.0
-161.5872 -144.7552 480.0
-159.20967 -145.65993 483.0
-157.1127 -146.86623 487.0
-153.6972 -146.86623 487.0
-150.28172 -146.86623 487.0
-147.46938 -147.46936 489.0
-144.62897 -148.07253 491.0
-141.18541 -148.07253 491.0
-138.0224 -148.37408 492.0
-134.29832 -148.07253 491.0
-130.85478 -148.07253 491.0
-128.18971 -148.97723 494.0
-124.72512 -148.97723 494.0
-121.75147 -149.58038 496.0
-118.98823 -150.48509 499.0
-115.95145 -151.08824 501.0
-112.886604 -151.69139 503.0
-109.79374 -152.29454 505.0
-106.672806 -152.89769 507.0
-103.11705 -152.89769 507.0
-90.29667 -155.31027 515.0
-86.85313 -155.61185 516.0
-83.39555 -155.91342 517.0
-79.769646 -155.91342 517.0
-76.29104 -156.21498 518.0
-72.7984 -156.51657 519.0
-69.29174 -156.81815 520.0
-183.80545 -144.41856 468.0
-180.90894 -144.72716 469.0
-177.99841 -145.03574 470.0
-175.07385 -145.34431 471.0
-172.13525 -145.65291 472.0
-169.18265 -145.96149 473.0
-166.56667 -146.57867 475.0
-163.57901 -146.88725 476.0
-161.25058 -147.81302 479.0
-158.55043 -148.43019 481.0
-155.82225 -149.04736 483.0
-152.75041 -149.35596 484.0
-149.97313 -149.97311 486.0
-147.1678 -150.5903 488.0
-144.33441 -151.20747 490.0
-141.18541 -151.51605 491.0
-137.74187 -151.51605 491.0
-134.29832 -151.51605 491.0
-130.85478 -151.51605 491.0
-128.18971 -152.44182 494.0
-124.97761 -152.7504 495.0
-121.99694 -153.36758 497.0
-118.98823 -153.98476 499.0
-115.72002 -154.29333 500.0
-112.662186 -154.9105 502.0
-109.57632 -155.52768 504.0
-106.25201 -155.83627 505.0
-103.11705 -156.45345 507.0
-97.33104 -158.61356 514.0
-93.54384 -158.30496 513.0
-89.94601 -158.30496 513.0
-86.34817 -158.30496 513.0
-82.91164 -158.61356 514.0
-79.769646 -159.5393 517.0
-76.43832 -160.15648 519.0
-72.93867 -160.46507 520.0
-187.48743 -148.0164 469.0
-183.80545 -147.7008 468.0
-180.52321 -147.7008 468.0
-177.61969 -148.0164 469.0
-174.70213 -148.332 470.0
-172.13525 -148.9632 472.0
-168.82497 -148.9632 472.0
-166.91734 -150.2256 476.0
-163.92265 -150.5412 477.0
-161.25058 -151.1724 479.0
-158.22081 -151.488 480.0
-155.82225 -152.4348 483.0
-152.75041 -152.7504 484.0
-149.66454 -153.066 485.0
-147.1678 -154.0128 488.0
-144.03983 -154.3284 489.0
-140.89787 -154.644 490.0
-137.74187 -154.9596 491.0
-134.57185 -155.2752 492.0
-131.3878 -155.5908 493.0
-128.18971 -155.9064 494.0
-124.97761 -156.222 495.0
-121.99694 -156.8532 497.0
-118.98823 -157.4844 499.0
-115.48857 -157.4844 499.0
-112.43776 -158.1156 501.0
-109.141495 -158.4312 502.0
-106.25201 -159.378 505.0
-103.11705 -160.0092 507.0
-100.34678 -161.2716 511.0
-96.76296 -161.2716 511.0
-93.179146 -161.2716 511.0
-89.59534 -161.2716 511.0
-86.17985 -161.5872 512.0
-82.91164 -162.2184 514.0
-79.769646 -163.1652 517.0
-76.29104 -163.4808 518.0
-187.08768 -150.98303 468.0
-183.80545 -150.98303 468.0
-180.52321 -150.98303 468.0
-177.99841 -151.62827 470.0
-175.07385 -151.95088 471.0
-172.13525 -152.2735 472.0
-168.82497 -152.2735 472.0
-166.56667 -153.24133 475.0
-163.92265 -153.88655 477.0
-160.91394 -154.20917 478.0
-158.22081 -154.8544 480.0
-155.49963 -155.49962 482.0
-152.75041 -156.14485 484.0
-149.66454 -156.46745 485.0
-146.86623 -157.1127 487.0
-144.03983 -157.75792 489.0
-141.18541 -158.40314 491.0
-137.74187 -158.40314 491.0
-134.84537 -159.04837 493.0
-131.3878 -159.04837 493.0
-128.18971 -159.37099 494.0
-124.72512 -159.37099 494.0
-121.75147 -160.0162 496.0
-118.511314 -160.33882 497.0
-115.48857 -160.98404 499.0
-111.98891 -160.98404 499.0
-109.141495 -161.95189 502.0
-106.25201 -162.91972 505.0
-103.320435 -163.88756 508.0
-100.15041 -164.5328 510.0
-96.57359 -164.5328 510.0
-93.179146 -164.85541 511.0
-89.59534 -164.85541 511.0
-86.17985 -165.17802 512.0
-82.91164 -165.82324 514.0
-79.30677 -165.82324 514.0
-190.36993 -154.26527 468.0
-186.28816 -153.60602 466.0
-183.41269 -153.93565 467.0
-180.52321 -154.26527 468.0
-177.61969 -154.59491 469.0
-174.70213 -154.92453 470.0
-172.13525 -155.58377 472.0
-169.18265 -155.9134 473.0
-166.216 -156.24304 474.0
-163.57901 -156.90228 476.0
-160.91394 -157.56154 478.0
-158.22081 -158.2208 480.0
-155.49963 -158.88005 482.0
-152.75041 -159.5393 484.0
-149.66454 -159.86893 485.0
-146.86623 -160.52818 487.0
-144.33441 -161.51706 490.0
-141.18541 -161.84668 491.0
-138.0224 -162.17632 492.0
-135.1189 -162.83557 494.0
-131.3878 -162.50594 493.0
-128.18971 -162.83557 494.0
-124.97761 -163.16519 495.0
-121.506004 -163.16519 495.0
-118.27286 -163.49483 496.0
-115.25713 -164.15407 498.0
-111.98891 -164.4837 499.0
-109.141495 -165.47258 502.0
-106.0416 -166.13184 504.0
-103.11705 -167.12071 507.0
-99.75767 -167.45035 508.0
-96.19487 -167.45035 508.0
-93.179146 -168.43922 511.0
-89.59534 -168.43922 511.0
-86.17985 -168.76884 512.0
-190.36993 -157.5475 468.0
-186.28816 -156.87424 466.0
-183.41269 -157.21088 467.0
-180.13747 -157.21088 467.0
-177.24097 -157.5475 468.0
-174.33044 -157.88416 469.0
-171.40587 -158.2208 470.0
-168.82497 -158.89407 472.0
-166.56667 -159.90399 475.0
-163.57901 -160.24063 476.0
-161.25058 -161.25055 479.0
-158.22081 -161.58719 480.0
-155.49963 -162.26047 482.0
-152.75041 -162.93375 484.0
-149.97313 -163.60704 486.0
-147.1678 -164.2803 488.0
-144.03983 -164.61696 489.0
-140.89787 -164.95358 490.0
-137.74187 -165.29024 491.0
-134.84537 -165.9635 493.0
-131.3878 -165.9635 493.0
-128.18971 -166.30016 494.0
-124.72512 -166.30016 494.0
-121.26054 -166.30016 494.0
-118.27286 -166.97343 496.0
-115.02569 -167.31007 497.0
-111.98891 -167.98335 499.0
-108.92408 -168.65663 501.0
-106.0416 -169.66655 504.0
-102.71027 -170.00319 505.0
-99.56129 -170.67647 507.0
-96.19487 -171.0131 508.0
-92.6321 -171.0131 508.0
-189.96317 -160.48611 467.0
-186.68793 -160.48611 467.0
-183.41269 -160.48611 467.0
-180.13747 -160.48611 467.0
-177.24097 -160.82976 468.0
-174.33044 -161.17343 469.0
-171.04117 -161.17343 469.0
-169.18265 -162.54803 473.0
-166.216 -162.8917 474.0
-163.92265 -163.92265 477.0
-161.25058 -164.60995 479.0
-158.22081 -164.95361 480.0
-155.49963 -165.64091 482.0
-153.06601 -166.67189 485.0
-150.28172 -167.35919 487.0
-147.1678 -167.70284 488.0
-144.03983 -168.0465 489.0
-140.61032 -168.0465 489.0
-137.74187 -168.7338 491.0
-134.57185 -169.07745 492.0
-131.3878 -169.42111 493.0
-127.93021 -169.42111 493.0
-124.72512 -169.76476 494.0
-121.26054 -169.76476 494.0
-118.27286 -170.45206 496.0
-115.02569 -170.79572 497.0
-111.98891 -171.48303 499.0
-108.70667 -171.82669 500.0
-106.0416 -173.2013 504.0
-102.50689 -173.2013 504.0
-99.16855 -173.54494 505.0
-96.005516 -174.23225 507.0
-193.23839 -163.76134 467.0
-189.14961 -163.06001 465.0
-185.88841 -163.06001 465.0
-182.62721 -163.06001 465.0
-179.75174 -163.41068 466.0
-176.86224 -163.76134 467.0
-173.95874 -164.11201 468.0
-171.40587 -164.81334 470.0
-168.82497 -165.51466 472.0
-166.216 -166.21602 474.0
-163.92265 -167.26802 477.0
-161.25058 -167.96935 479.0
-158.55043 -168.67067 481.0
-155.82225 -169.37201 483.0
-153.06601 -170.07335 485.0
-150.28172 -170.77467 487.0
-147.1678 -171.12534 488.0
-144.03983 -171.47601 489.0
-140.89787 -171.82668 490.0
-138.0224 -172.52802 492.0
-134.84537 -172.87868 493.0
-131.3878 -172.87868 493.0
-127.93021 -172.87868 493.0
-124.47264 -172.87868 493.0
-121.26054 -173.22934 494.0
-117.79596 -173.22934 494.0
-114.79425 -173.93066 496.0
-111.98891 -174.98267 499.0
-108.70667 -175.33334 500.0
-105.4104 -175.684 501.0
-102.50689 -176.73601 504.0
-98.97217 -176.73601 504.0
-192.41081 -166.3212 465.0
-189.14961 -166.3212 465.0
-185.88841 -166.3212 465.0
-182.62721 -166.3212 465.0
-179.75174 -166.67888 466.0
-176.48354 -166.67888 466.0
-173.95874 -167.39424 468.0
-171.40587 -168.1096 470.0
-168.82497 -168.82497 472.0
-166.216 -169.54033 474.0
-163.92265 -170.61337 477.0
-161.5872 -171.6864 480.0
-158.88005 -172.40176 482.0
-155.82225 -172.75945 483.0
-153.06601 -173.47481 485.0
-150.28172 -174.19017 487.0
-147.1678 -174.54785 488.0
-144.33441 -175.2632 490.0
-141.18541 -175.62088 491.0
-138.0224 -175.97856 492.0
-134.84537 -176.33624 493.0
-131.3878 -176.33624 493.0
-127.670715 -175.97856 492.0
-124.22016 -175.97856 492.0
-121.01507 -176.33624 493.0
-117.79596 -176.69392 494.0
-114.56281 -177.0516 495.0
-111.540054 -177.76697 497.0
-108.48925 -178.48233 499.0
-105.4104 -179.19768 501.0
-102.10011 -179.55536 502.0
-53.757202 -182.77449 511.0
-49.977016 -182.05913 509.0
-224.49681 -176.87627 485.0
-192.8246 -169.9471 466.0
-189.14961 -169.5824 465.0
-185.88841 -169.5824 465.0
-182.62721 -169.5824 465.0
-179.75174 -169.9471 466.0
-176.86224 -170.31178 467.0
-173.95874 -170.67648 468.0
-171.40587 -171.40587 470.0
-168.82497 -172.13525 472.0
-166.216 -172.86465 474.0
-163.57901 -173.59402 476.0
-161.25058 -174.68811 479.0
-158.88005 -175.7822 482.0
-155.82225 -176.14688 483.0
-153.06601 -176.87627 485.0
-150.28172 -177.60567 487.0
-147.46938 -178.33505 489.0
-144.33441 -178.69972 490.0
-141.18541 -179.06442 491.0
-137.74187 -179.06442 491.0
-134.57185 -179.42912 492.0
-131.12129 -179.42912 492.0
-127.411224 -179.06442 491.0
-124.22016 -179.42912 492.0
-121.01507 -179.79381 493.0
-117.79596 -180.15851 494.0
-114.79425 -180.8879 496.0
-111.31563 -180.8879 496.0
-107.83701 -180.8879 496.0
-104.9896 -181.98198 499.0
-101.89673 -182.71136 501.0
-67.6927 -185.2642 508.0
-64.00369 -184.89952 507.0
-60.447914 -184.89952 507.0
-56.89216 -184.89952 507.0
-53.546803 -185.6289 509.0
-49.878834 -185.2642 508.0
-46.31606 -185.2642 508.0
-42.837437 -185.6289 509.0
-226.95848 -179.53432 483.0
-223.57104 -179.53432 483.0
-221.09534 -180.27773 485.0
-219.48929 -181.76456 489.0
-220.47818 -185.48163 499.0
-216.9785 -185.48163 499.0
-196.9344 -173.95872 468.0
-193.65216 -173.95872 468.0
-189.55638 -173.2153 466.0
-185.88841 -172.8436 465.0
-182.62721 -172.8436 465.0
-179.75174 -173.2153 466.0
-176.86224 -173.587 467.0
-173.95874 -173.95872 468.0
-171.40587 -174.70213 470.0
-168.82497 -175.44554 472.0
-166.56667 -176.56067 475.0
-164.2663 -177.67578 478.0
-161.5872 -178.4192 480.0
-158.88005 -179.16261 482.0
-156.14485 -179.90602 484.0
-153.06601 -180.27773 485.0
-150.5903 -181.39285 488.0
-147.46938 -181.76456 489.0
-144.03983 -181.76456 489.0
-141.18541 -182.50798 491.0
-137.74187 -182.50798 491.0
-134.02481 -182.13628 490.0
-130.85478 -182.50798 491.0
-127.670715 -182.87968 492.0
-124.47264 -183.25139 493.0
-121.01507 -183.25139 493.0
-117.5575 -183.25139 493.0
-114.33137 -183.6231 494.0
-111.091194 -183.9948 495.0
-107.83701 -184.3665 496.0
-104.5688 -184.7382 497.0
-101.48996 -185.48163 499.0
-98.57942 -186.59674 502.0
-95.43744 -187.34015 504.0
-84.66497 -186.96844 503.0
-81.29857 -187.34015 504.0
-77.76384 -187.34015 504.0
-74.3764 -187.71187 505.0
-71.25547 -188.827 508.0
-67.29294 -187.71187 505.0
-63.87745 -188.08357 506.0
-60.20946 -187.71187 505.0
-56.667732 -187.71187 505.0
-53.126003 -187.71187 505.0
-49.780643 -188.45528 507.0
-46.31606 -188.827 508.0
-230.82985 -180.64943 477.0
-227.4845 -180.64943 477.0
-224.60901 -181.02815 478.0
-222.1824 -181.7856 480.0
-219.27188 -182.16432 481.0
-217.69388 -183.6792 485.0
-219.15265 -187.84512 496.0
-216.9785 -188.98128 499.0
-207.48947 -183.6792 485.0
-196.9344 -177.24095 468.0
-193.23839 -176.86223 467.0
-189.14961 -176.1048 465.0
-186.28816 -176.48352 466.0
-183.01994 -176.48352 466.0
-179.75174 -176.48352 466.0
-176.86224 -176.86223 467.0
-173.95874 -177.24095 468.0
-171.40587 -177.9984 470.0
-169.18265 -179.13455 473.0
-166.91734 -180.27072 476.0
-164.2663 -181.02815 478.0
-161.5872 -181.7856 480.0
-159.20967 -182.92175 483.0
-156.14485 -183.30048 484.0
-153.6972 -184.43663 487.0
-150.28172 -184.43663 487.0
-147.1678 -184.81535 488.0
-144.03983 -185.19408 489.0
-140.61032 -185.19408 489.0
-137.1808 -185.19408 489.0
-134.02481 -185.5728 490.0
-130.85478 -185.95152 491.0
-127.411224 -185.95152 491.0
-124.22016 -186.33023 492.0
-120.76961 -186.33023 492.0
-117.08059 -185.95152 491.0
-113.86849 -186.33023 492.0
-110.866776 -187.08768 494.0
-107.83701 -187.84512 496.0
-104.5688 -188.22383 497.0
-101.48996 -188.98128 499.0
-98.186676 -189.36 500.0
-95.058716 -190.11743 502.0
-91.35568 -189.73872 501.0
-87.49133 -188.98128 499.0
-84.49664 -190.11743 502.0
-80.97596 -190.11743 502.0
-77.455246 -190.11743 502.0
-73.93456 -190.11743 502.0
-70.55414 -190.49615 503.0
-67.15968 -190.87486 504.0
-63.624966 -190.87486 504.0
-60.090237 -190.87486 504.0
-56.55552 -190.87486 504.0
-53.0208 -190.87486 504.0
-49.780643 -192.01103 507.0
-46.31606 -192.38976 508.0
-241.87584 -184.76627 479.0
-238.01852 -184.38052 478.0
-234.66614 -184.38052 478.0
-231.31377 -184.38052 478.0
-226.05379 -182.83759 474.0
-222.72943 -182.83759 474.0
-219.86801 -183.22333 475.0
-217.90428 -184.38052 478.0
-217.24503 -186.69493 484.0
-214.2924 -187.08066 485.0
-210.4561 -186.69493 484.0
-204.92259 -184.76627 479.0
-196.0928 -179.75172 466.0
-192.41081 -179.36598 465.0
-189.96317 -180.13745 467.0
-186.28816 -179.75172 466.0
-183.01994 -179.75172 466.0
-180.13747 -180.13745 467.0
-176.86224 -180.13745 467.0
-173.95874 -180.5232 468.0
-171.77057 -181.68039 471.0
-169.18265 -182.45186 473.0
-166.91734 -183.60905 476.0
-164.2663 -184.38052 478.0
-161.92384 -185.53773 481.0
-159.53929 -186.69493 484.0
-156.14485 -186.69493 484.0
-153.6972 -187.85213 487.0
-150.5903 -188.23785 488.0
-146.86623 -187.85213 487.0
-144.03983 -188.62358 489.0
-140.61032 -188.62358 489.0
-137.1808 -188.62358 489.0
-133.7513 -188.62358 489.0
-130.32178 -188.62358 489.0
-127.151726 -189.00932 490.0
-123.96768 -189.39507 491.0
-120.52414 -189.39507 491.0
-116.84214 -189.00932 490.0
-113.63705 -189.39507 491.0
-110.417915 -189.78079 492.0
-107.619606 -190.93799 495.0
-104.358406 -191.32373 496.0
-101.28657 -192.09518 498.0
-97.9903 -192.48093 499.0
-94.49064 -192.48093 499.0
-90.99098 -192.48093 499.0
-87.49133 -192.48093 499.0
-84.32832 -193.25238 501.0
-80.97596 -193.63812 502.0
-77.455246 -193.63812 502.0
-73.93456 -193.63812 502.0
-70.41387 -193.63812 502.0
-67.15968 -194.40959 504.0
-63.37249 -193.63812 502.0
-59.97101 -194.02386 503.0
-247.55666 -187.34015 477.0
-244.21129 -187.34015 477.0
-240.36096 -186.9474 476.0
-237.02261 -186.9474 476.0
-232.21147 -185.76917 473.0
-226.9585 -184.19818 469.0
-222.71542 -183.41267 467.0
-220.37997 -184.19818 469.0
-217.5536 -184.59091 470.0
-215.16907 -185.3764 472.0
-216.79616 -189.69664 483.0
-213.40874 -189.69664 483.0
-207.84714 -187.7329 478.0
-204.49478 -187.7329 478.0
-196.51361 -183.41267 467.0
-192.8246 -183.01994 466.0
-189.96317 -183.41267 467.0
-186.28816 -183.01994 466.0
-183.01994 -183.01994 466.0
-180.13747 -183.41267 467.0
-177.24097 -183.80544 468.0
-174.33044 -184.19818 469.0
-171.77057 -184.98367 471.0
-169.54031 -186.16191 474.0
-166.91734 -186.9474 476.0
-164.60995 -188.12564 479.0
-162.2605 -189.30388 482.0
-159.53929 -190.08937 484.0
-156.46747 -190.48212 485.0
-153.6972 -191.26761 487.0
-150.28172 -191.26761 487.0
-146.86623 -191.26761 487.0
-143.45071 -191.26761 487.0
-140.61032 -192.0531 489.0
-136.90027 -191.66037 488.0
-133.20425 -191.26761 487.0
-130.05527 -191.66037 488.0
-126.89224 -192.0531 489.0
-123.7152 -192.44586 490.0
-120.27867 -192.44586 490.0
-116.84214 -192.44586 490.0
-113.63705 -192.8386 491.0
-110.1935 -192.8386 491.0
-107.40218 -194.01685 494.0
-104.148 -194.40959 495.0
-100.87979 -194.80234 496.0
-97.59756 -195.19508 497.0
-94.49064 -195.98058 499.0
-90.99098 -195.98058 499.0
-87.49133 -195.98058 499.0
-84.16 -196.37332 500.0
-80.97596 -197.15881 502.0
-77.455246 -197.15881 502.0
-73.93456 -197.15881 502.0
-70.55414 -197.55156 503.0
-67.026436 -197.55156 503.0
-252.64832 -189.48625 474.0
-249.324 -189.48625 474.0
-247.03767 -190.28577 476.0
-242.67538 -189.48625 474.0
-237.3312 -187.8872 470.0
-234.03494 -187.8872 470.0
-229.7568 -187.08769 468.0
-225.50674 -186.28816 466.0
-222.23853 -186.28816 466.0
-219.44019 -186.68793 467.0
-216.62785 -187.08769 468.0
-214.25734 -187.8872 470.0
-216.34732 -192.68433 482.0
-212.52505 -192.28456 481.0
-207.84714 -191.0853 478.0
-204.06697 -190.68553 477.0
-200.30081 -190.28577 476.0
-193.23839 -186.68793 467.0
-189.96317 -186.68793 467.0
-186.28816 -186.28816 466.0
-183.01994 -186.28816 466.0
-180.13747 -186.68793 467.0
-176.86224 -186.68793 467.0
-173.95874 -187.08769 468.0
-172.13525 -188.68674 472.0
-169.89801 -189.88602 475.0
-167.268 -190.68553 477.0
-164.95361 -191.88481 480.0
-162.2605 -192.68433 482.0
-159.53929 -193.48384 484.0
-156.14485 -193.48384 484.0
-153.06601 -193.8836 485.0
-149.66454 -193.8836 485.0
-146.56465 -194.28337 486.0
-143.15616 -194.28337 486.0
-140.03523 -194.68314 487.0
-136.61974 -194.68314 487.0
-133.20425 -194.68314 487.0
-130.05527 -195.0829 488.0
-126.89224 -195.48265 489.0
-123.462715 -195.48265 489.0
-119.787735 -195.0829 488.0
-116.60369 -195.48265 489.0
-113.40561 -195.88242 490.0
-110.1935 -196.28217 491.0
-107.40218 -197.48145 494.0
-103.93761 -197.48145 494.0
-100.67641 -197.88121 495.0
-97.401184 -198.28096 496.0
-94.30127 -199.08049 498.0
-90.80864 -199.08049 498.0
-87.316 -199.08049 498.0
-84.16 -199.88002 500.0
-80.65334 -199.88002 500.0
-77.30096 -200.27977 501.0
-73.93456 -200.67953 502.0
-258.74994 -192.4038 473.0
-254.8926 -191.99702 472.0
-251.5823 -191.99702 472.0
-248.798 -192.4038 473.0
-245.9997 -192.81056 474.0
-237.55565 -188.74284 464.0
-234.30144 -188.74284 464.0
-230.54932 -188.33606 463.0
-227.30214 -188.33606 463.0
-224.5389 -188.74284 464.0
-220.8078 -188.33606 463.0
-218.0305 -188.74284 464.0
-215.70207 -189.55638 466.0
-213.34561 -190.36993 468.0
-216.34732 -196.06476 482.0
-210.75769 -194.03088 477.0
-207.41232 -194.03088 477.0
-203.63914 -193.62411 476.0
-199.88 -193.21735 475.0
-193.23839 -189.96315 467.0
-189.96317 -189.96315 467.0
-186.68793 -189.96315 467.0
-183.41269 -189.96315 467.0
-180.52321 -190.36993 468.0
-177.24097 -190.36993 468.0
-174.70213 -191.18347 470.0
-172.49994 -192.4038 473.0
-169.89801 -193.21735 475.0
-167.268 -194.03088 477.0
-164.60995 -194.84444 479.0
-162.2605 -196.06476 482.0
-159.20967 -196.47153 483.0
-156.14485 -196.8783 484.0
-152.4348 -196.47153 483.0
-149.04736 -196.47153 483.0
-145.96152 -196.8783 484.0
-142.56705 -196.8783 484.0
-139.46014 -197.28506 485.0
-136.05867 -197.28506 485.0
-132.3837 -196.8783 484.0
-129.25575 -197.28506 485.0
-126.11376 -197.69185 486.0
-122.95776 -198.09862 487.0
-119.542274 -198.09862 487.0
-116.365234 -198.50539 488.0
-113.17417 -198.91217 489.0
-110.1935 -199.72572 491.0
-107.18477 -200.53926 493.0
-103.7272 -200.53926 493.0
-100.47302 -200.94603 494.0
-97.401184 -201.75958 496.0
-93.92256 -201.75958 496.0
-90.80864 -202.57314 498.0
-257.1088 -194.47974 470.0
-252.73248 -193.65216 468.0
-248.38422 -192.82458 466.0
-243.53801 -191.58324 463.0
-240.29083 -191.58324 463.0
-236.5317 -191.16945 462.0
-233.29152 -191.16945 462.0
-229.5534 -190.75566 461.0
-226.32028 -190.75566 461.0
-223.57104 -191.16945 462.0
-220.3309 -191.16945 462.0
-217.56061 -191.58324 463.0
-214.77632 -191.99701 464.0
-212.88974 -193.23837 467.0
-210.51222 -194.06595 469.0
-209.87401 -196.54868 475.0
-206.9775 -196.96246 476.0
-203.21133 -196.54868 475.0
-199.45921 -196.13489 474.0
-196.13489 -196.13489 474.0
-190.36993 -193.65216 468.0
-187.08768 -193.65216 468.0
-183.80545 -193.65216 468.0
-180.52321 -193.65216 468.0
-177.61969 -194.06595 469.0
-175.44556 -195.30731 472.0
-172.86464 -196.13489 474.0
-169.89801 -196.54868 475.0
-167.268 -197.37625 477.0
-164.60995 -198.20381 479.0
-161.92384 -199.03139 481.0
-158.88005 -199.44518 482.0
-155.49963 -199.44518 482.0
-152.1192 -199.44518 482.0
-148.73878 -199.44518 482.0
-145.35835 -199.44518 482.0
-141.97792 -199.44518 482.0
-139.17259 -200.27275 484.0
-135.77814 -200.27275 484.0
-132.3837 -200.27275 484.0
-128.98924 -200.27275 484.0
-125.85426 -200.68654 485.0
-122.95776 -201.5141 487.0
-119.787735 -201.92789 488.0
-116.365234 -201.92789 488.0
-113.40561 -202.75548 490.0
-110.1935 -203.16927 491.0
-107.18477 -203.99684 493.0
-103.7272 -203.99684 493.0
-100.47302 -204.41061 494.0

