ply
format ascii 1.0
comment made by @arthurmuchir
element vertex 666
property float x
property float y
property float z
end_header
-259.11462 -134.0248 637.0
-255.8464 -134.656 640.0
-252.14337 -135.0768 642.0
-249.56947 -136.1288 647.0
-262.75455 -138.05746 635.0
-258.70786 -138.27487 636.0
-255.04688 -138.7097 638.0
-251.75061 -139.36194 641.0
-248.41228 -140.01419 644.0
-314.83557 -130.84074 583.0
-311.2798 -131.06517 584.0
-264.26242 -140.93994 628.0
-261.51318 -141.83765 632.0
-258.70786 -142.73535 636.0
-254.64713 -142.95978 637.0
-251.35788 -143.63306 640.0
-247.64081 -144.08192 642.0
-317.2832 -134.23518 580.0
-313.21548 -134.23518 580.0
-310.74677 -134.9295 583.0
-307.71002 -135.39238 585.0
-273.07114 -145.3443 628.0
-268.66678 -145.3443 628.0
-264.6832 -145.57576 629.0
-261.0994 -146.03862 631.0
-257.89432 -146.73296 634.0
-254.24736 -147.19582 636.0
-251.35788 -148.12158 640.0
-247.64081 -148.58447 642.0
-316.73618 -138.0645 579.0
-312.67545 -138.0645 579.0
-309.68076 -138.5414 581.0
-307.18402 -139.25676 584.0
-303.6072 -139.49521 585.0
-278.73795 -148.07953 621.0
-274.8245 -148.318 622.0
-271.33185 -148.79489 624.0
-268.23895 -149.51025 627.0
-264.6832 -149.98717 629.0
-261.0994 -150.46407 631.0
-257.89432 -151.17943 634.0
-254.24736 -151.65633 636.0
-237.14185 -158.09457 663.0
-232.492 -158.09457 663.0
-315.6421 -141.63428 577.0
-311.5954 -141.63428 577.0
-309.14774 -142.37067 580.0
-306.13202 -142.86162 582.0
-301.53125 -142.61613 581.0
-278.73795 -152.43481 621.0
-274.38266 -152.43481 621.0
-270.897 -152.92574 623.0
-266.95554 -153.17122 624.0
-263.8416 -153.90761 627.0
-261.0994 -154.88947 631.0
-258.3011 -155.87134 635.0
-247.68289 -160.53522 654.0
-243.4679 -160.78069 655.0
-239.96822 -161.51709 658.0
-236.42648 -162.25348 661.0
-232.492 -162.74442 663.0
-228.87314 -163.48082 666.0
-313.45392 -144.67105 573.0
-310.51535 -145.176 575.0
-307.54868 -145.68097 577.0
-305.08002 -146.4384 580.0
-301.53125 -146.69089 581.0
-286.05984 -156.03265 618.0
-282.1815 -156.28513 619.0
-277.84024 -156.28513 619.0
-274.38266 -156.79008 621.0
-270.4622 -157.04257 622.0
-266.95554 -157.54753 624.0
-263.8416 -158.30496 627.0
-261.0994 -159.31488 631.0
-254.1071 -163.35457 647.0
-250.34094 -163.85953 649.0
-246.92545 -164.61696 652.0
-243.09618 -165.12193 654.0
-239.60352 -165.87936 657.0
-236.42648 -166.88928 661.0
-232.14134 -167.14177 662.0
-312.35986 -148.1707 571.0
-309.4353 -148.68968 573.0
-306.48267 -149.20866 575.0
-305.08002 -150.50613 580.0
-301.01227 -150.50613 580.0
-284.6712 -159.5884 615.0
-280.81387 -159.8479 616.0
-277.84024 -160.62637 619.0
-274.38266 -161.14537 621.0
-270.897 -161.66435 623.0
-267.38333 -162.18333 625.0
-264.26242 -162.9618 628.0
-261.0994 -163.7403 631.0
-256.64594 -166.59471 642.0
-253.71434 -167.63269 646.0
-249.56947 -167.89218 647.0
-245.78929 -168.41118 649.0
-242.72447 -169.44916 653.0
-238.87413 -169.96814 655.0
-236.42648 -171.5251 661.0
-232.14134 -171.78459 662.0
-311.8128 -151.9088 570.0
-308.89526 -152.44182 572.0
-306.48267 -153.24133 575.0
-304.028 -154.04085 578.0
-301.01227 -154.57387 580.0
-288.04462 -163.36859 613.0
-284.2083 -163.6351 614.0
-279.90213 -163.6351 614.0
-276.49368 -164.1681 616.0
-273.9408 -165.23413 620.0
-270.897 -166.03365 623.0
-267.38333 -166.56667 625.0
-264.26242 -167.3662 628.0
-263.58212 -169.76474 637.0
-260.74173 -170.83078 641.0
-256.64594 -171.09729 642.0
-252.53612 -171.36378 643.0
-249.18375 -172.1633 646.0
-245.41057 -172.69632 648.0
-242.72447 -174.02884 653.0
-239.60352 -175.09488 657.0
-235.71112 -175.6279 659.0
-311.26578 -155.63287 569.0
-308.35522 -156.17992 571.0
-306.48267 -157.274 575.0
-304.028 -158.09456 578.0
-301.01227 -158.6416 580.0
-294.7073 -166.57367 609.0
-290.9131 -166.8472 610.0
-287.57474 -167.39424 612.0
-283.74545 -167.66776 613.0
-279.90213 -167.94127 614.0
-276.49368 -168.48831 616.0
-273.499 -169.30887 619.0
-270.897 -170.40295 623.0
-266.95554 -170.67647 624.0
-268.04962 -174.23224 637.0
-263.58212 -174.23224 637.0
-259.5214 -174.50575 638.0
-256.24615 -175.32632 641.0
-252.14337 -175.59984 642.0
-248.41228 -176.14687 644.0
-245.03185 -176.96744 647.0
-242.35277 -178.33504 652.0
-238.87413 -179.1556 655.0
-310.71872 -159.34293 568.0
-307.81522 -159.90399 570.0
-305.41663 -160.74559 573.0
-303.502 -161.86774 577.0
-298.4875 -170.56425 608.0
-294.7073 -170.84479 609.0
-290.4362 -170.84479 609.0
-286.63495 -171.12534 610.0
-283.28256 -171.68639 612.0
-279.4463 -171.96693 613.0
-276.49368 -172.80853 616.0
-273.499 -173.65013 619.0
-272.63632 -175.8944 627.0
-269.5224 -176.736 630.0
-265.94562 -177.29706 632.0
-263.16833 -178.41919 636.0
-258.70786 -178.41919 636.0
-255.04688 -178.98026 638.0
-252.14337 -180.10239 642.0
-249.18375 -181.22452 646.0
-245.41057 -181.78558 648.0
-242.35277 -182.90771 652.0
-310.71872 -163.32649 568.0
-308.35522 -164.18913 571.0
-305.41663 -164.76422 573.0
-302.976 -165.62688 576.0
-300.7598 -173.67818 604.0
-297.5056 -174.25327 606.0
-293.25552 -174.25327 606.0
-290.4362 -175.1159 609.0
-286.63495 -175.40346 610.0
-283.28256 -175.97855 612.0
-279.90213 -176.55363 614.0
-276.49368 -177.12872 616.0
-277.0337 -180.29173 627.0
-273.50598 -180.86684 629.0
-269.95023 -181.44193 631.0
-265.5248 -181.44193 631.0
-261.51318 -181.72948 632.0
-258.70786 -182.87967 636.0
-254.64713 -183.1672 637.0
-252.53612 -184.89249 643.0
-249.18375 -185.75513 646.0
-311.26578 -167.60464 569.0
-308.89526 -168.48833 572.0
-305.94965 -169.07745 574.0
-302.976 -169.66656 576.0
-305.6481 -175.85233 597.0
-302.976 -176.73601 600.0
-299.26596 -177.03058 601.0
-296.0328 -177.61969 603.0
-292.2877 -177.91425 604.0
-289.00546 -178.50337 606.0
-286.63495 -179.68161 610.0
-283.28256 -180.27074 612.0
-279.90213 -180.85985 614.0
-279.63562 -183.5109 623.0
-277.0337 -184.68913 627.0
-273.50598 -185.27824 629.0
-269.5224 -185.57281 630.0
-265.5248 -185.86737 631.0
-261.51318 -186.16193 632.0
-258.70786 -187.34018 636.0
-255.04688 -187.92929 638.0
-252.53612 -189.4021 643.0
-249.18375 -190.28578 646.0
-234.99576 -193.52592 657.0
-230.73868 -193.8205 658.0
-227.15488 -194.70418 661.0
-222.8557 -194.99873 662.0
-311.26578 -171.59523 569.0
-308.35522 -172.19838 571.0
-305.94965 -173.1031 574.0
-312.444 -179.13457 594.0
-309.31607 -179.73772 596.0
-305.13614 -179.73772 596.0
-301.46112 -180.03928 597.0
-298.768 -180.94402 600.0
-295.05093 -181.24557 601.0
-291.80377 -181.84872 603.0
-289.00546 -182.75345 606.0
-286.16504 -183.65817 609.0
-283.28256 -184.56288 612.0
-280.358 -185.4676 615.0
-279.1868 -187.57863 622.0
-275.26633 -187.8802 623.0
-271.76666 -188.48334 625.0
-268.66678 -189.38806 628.0
-265.104 -189.99121 630.0
-261.51318 -190.59436 632.0
-258.70786 -191.80064 636.0
-255.8464 -193.00694 640.0
-246.16801 -196.02267 650.0
-241.60936 -196.02267 650.0
-237.78006 -196.62582 652.0
-234.28041 -197.53055 655.0
-230.38802 -198.13368 657.0
-227.15488 -199.33998 661.0
-223.19234 -199.94313 663.0
-311.8128 -175.8944 570.0
-308.89526 -176.51158 572.0
-314.47787 -182.06615 590.0
-311.392 -182.6833 592.0
-308.7971 -183.60907 595.0
-305.13614 -183.91766 596.0
-301.46112 -184.22624 597.0
-298.27005 -184.84341 599.0
-294.56 -185.152 600.0
-291.3199 -185.76918 602.0
-288.05164 -186.38635 604.0
-286.16504 -187.92928 609.0
-282.81967 -188.54646 611.0
-281.72562 -190.70656 618.0
-278.73795 -191.63232 621.0
-274.8245 -191.9409 622.0
-271.33185 -192.55809 624.0
-268.23895 -193.48384 627.0
-265.104 -194.4096 630.0
-262.34076 -195.64395 634.0
-258.70786 -196.26112 636.0
-256.24615 -197.80406 641.0
-248.41228 -198.72981 644.0
-245.03185 -199.65558 647.0
-241.23766 -200.27275 649.0
-237.78006 -201.1985 652.0
-233.92271 -201.81569 654.0
-230.38802 -202.74146 657.0
-226.46756 -203.35861 659.0
-222.8557 -204.28438 662.0
-312.35986 -180.2076 571.0
-311.05536 -181.7856 576.0
-312.8788 -185.2572 587.0
-309.81403 -185.8884 589.0
-307.24014 -186.8352 592.0
-304.11218 -187.4664 594.0
-300.95615 -188.0976 596.0
-297.7721 -188.7288 598.0
-294.56 -189.36 600.0
-290.83594 -189.6756 601.0
-288.05164 -190.6224 604.0
-285.69516 -191.8848 608.0
-282.3568 -192.516 610.0
-280.81387 -194.4096 616.0
-277.84024 -195.3564 619.0
-274.8245 -196.3032 622.0
-270.897 -196.6188 623.0
-268.23895 -197.8812 627.0
-264.6832 -198.5124 629.0
-262.34076 -200.0904 634.0
-258.70786 -200.7216 636.0
-256.24615 -202.2996 641.0
-251.75061 -202.2996 641.0
-247.64081 -202.6152 642.0
-243.89569 -203.2464 644.0
-240.86594 -204.5088 648.0
-237.05066 -205.14 650.0
-233.56505 -206.0868 653.0
-230.38802 -207.3492 657.0
-226.46756 -207.98041 659.0
-222.8557 -208.9272 662.0
-313.45392 -184.85744 573.0
-312.13544 -186.4705 578.0
-310.74677 -188.08356 583.0
-308.76202 -189.37402 587.0
-306.20215 -190.34186 590.0
-303.08823 -190.98709 592.0
-300.4512 -191.95493 595.0
-297.27414 -192.60016 597.0
-294.0691 -193.24539 599.0
-290.83594 -193.89061 601.0
-287.57474 -194.53583 603.0
-285.22525 -195.8263 607.0
-282.3568 -196.79413 610.0
-279.4463 -197.76196 613.0
-277.39136 -199.37503 618.0
-274.38266 -200.34286 621.0
-270.897 -200.98811 623.0
-268.66678 -202.60117 628.0
-265.5248 -203.56902 631.0
-262.34076 -204.53685 634.0
-258.70786 -205.18207 636.0
-255.04688 -205.8273 638.0
-251.75061 -206.79514 641.0
-247.64081 -207.11775 642.0
-243.89569 -207.76299 644.0
-240.86594 -209.05344 648.0
-237.05066 -209.69865 650.0
-233.56505 -210.6665 653.0
-230.38802 -211.95695 657.0
-314.00098 -189.20569 574.0
-311.5954 -190.19458 577.0
-309.14774 -191.18346 580.0
-307.71002 -192.83159 585.0
-304.6452 -193.49084 587.0
-303.08823 -195.13898 592.0
-300.4512 -196.12785 595.0
-297.27414 -196.78712 597.0
-293.57816 -197.11674 598.0
-290.35202 -197.77599 600.0
-287.57474 -198.76488 603.0
-285.22525 -200.08337 607.0
-281.89392 -200.74263 609.0
-278.99042 -201.73152 612.0
-276.49368 -203.05002 616.0
-274.38266 -204.69815 621.0
-270.897 -205.3574 623.0
-269.5224 -207.6648 630.0
-265.5248 -207.99443 631.0
-261.51318 -208.32405 632.0
-258.70786 -209.64255 636.0
-254.64713 -209.97218 637.0
-251.35788 -210.96106 640.0
-247.64081 -211.62032 642.0
-243.89569 -212.27957 644.0
-240.49423 -213.26845 647.0
-236.68597 -213.92769 649.0
-313.45392 -192.8947 573.0
-311.5954 -194.24127 577.0
-309.14774 -195.25119 580.0
-307.18402 -196.59775 584.0
-304.1262 -197.27103 586.0
-303.08823 -199.29086 592.0
-300.4512 -200.30078 595.0
-297.27414 -200.97408 597.0
-293.57816 -201.3107 598.0
-290.35202 -201.984 600.0
-287.57474 -202.99391 603.0
-284.75537 -204.00381 606.0
-281.89392 -205.01375 609.0
-278.99042 -206.02367 612.0
-276.0448 -207.03358 615.0
-274.38266 -209.05342 621.0
-270.897 -209.7267 623.0
-268.66678 -211.40991 628.0
-264.6832 -211.74655 629.0
-260.6856 -212.08319 630.0
-257.89432 -213.42975 634.0
-254.64713 -214.43967 637.0
-251.35788 -215.44958 640.0
-247.64081 -216.12286 642.0
-243.51697 -216.4595 643.0
-240.49423 -217.80608 647.0
-237.05066 -218.81598 650.0
-312.9069 -196.56972 572.0
-311.5954 -198.288 577.0
-309.14774 -199.31894 580.0
-307.18402 -200.69357 584.0
-304.6452 -201.72452 587.0
-303.08823 -203.4428 592.0
-299.94623 -204.1301 594.0
-297.27414 -205.16104 597.0
-294.0691 -205.84837 599.0
-290.35202 -206.19202 600.0
-287.57474 -207.22298 603.0
-284.75537 -208.25394 606.0
-281.89392 -209.2849 609.0
-278.53455 -209.9722 611.0
-275.59598 -211.00317 614.0
-273.9408 -213.06508 620.0
-270.897 -214.09604 623.0
-267.38333 -214.78334 625.0
-263.8416 -215.47066 627.0
-260.27182 -216.15796 629.0
-257.08075 -217.18892 632.0
-254.24736 -218.56354 636.0
-251.35788 -219.93814 640.0
-247.64081 -220.62546 642.0
-312.35986 -200.23067 571.0
-311.05536 -201.98401 576.0
-310.21375 -204.08801 582.0
-307.18402 -204.78934 584.0
-305.16418 -206.19202 588.0
-303.08823 -207.59467 592.0
-299.94623 -208.29602 594.0
-297.27414 -209.348 597.0
-293.57816 -209.69867 598.0
-290.35202 -210.40001 600.0
-287.09784 -211.10135 602.0
-283.81558 -211.80267 604.0
-281.89392 -213.55602 609.0
-278.07867 -213.90668 610.0
-275.59598 -215.30934 614.0
-273.499 -217.06268 619.0
-270.4622 -218.11469 622.0
-266.95554 -218.816 624.0
-263.8416 -219.868 627.0
-260.6856 -220.92 630.0
-257.08075 -221.62134 632.0
-254.24736 -223.024 636.0
-313.45392 -204.95065 573.0
-311.05536 -206.02368 576.0
-310.21375 -208.16977 582.0
-307.71002 -209.2428 585.0
-305.16418 -210.31584 588.0
-303.08823 -211.74657 592.0
-300.4512 -212.8196 595.0
-297.27414 -213.53496 597.0
-293.57816 -213.89265 598.0
-290.35202 -214.608 600.0
-287.09784 -215.32336 602.0
-283.81558 -216.03873 604.0
-280.96817 -217.11177 607.0
-278.07867 -218.1848 610.0
-274.69824 -218.90016 612.0
-273.05713 -221.04623 618.0
-270.02737 -222.1193 621.0
-266.95554 -223.19234 624.0
-264.26242 -224.62303 628.0
-261.0994 -225.69609 631.0
-257.08075 -226.05377 632.0
-314.00098 -209.33398 574.0
-311.5954 -210.42805 577.0
-309.68076 -211.88683 581.0
-307.71002 -213.3456 585.0
-305.16418 -214.43968 588.0
-303.08823 -215.89845 592.0
-300.4512 -216.99254 595.0
-296.77625 -217.35722 596.0
-293.57816 -218.08661 598.0
-290.35202 -218.816 600.0
-286.6209 -219.18071 601.0
-283.34567 -219.91006 603.0
-280.96817 -221.36885 607.0
-277.6228 -222.09824 609.0
-275.1471 -223.557 613.0
-272.17346 -224.65111 616.0
-270.02737 -226.47456 621.0
-266.5277 -227.20395 623.0
-263.8416 -228.66273 627.0
-261.0994 -230.1215 631.0
-313.45392 -212.98792 573.0
-312.67545 -215.21815 579.0
-309.68076 -215.96158 581.0
-307.71002 -217.4484 585.0
-305.16418 -218.56354 588.0
-302.06427 -219.30695 590.0
-299.44128 -220.42204 593.0
-296.2783 -221.16545 595.0
-293.08722 -221.90887 597.0
-289.8681 -222.65228 599.0
-286.6209 -223.39569 601.0
-282.8758 -223.76741 602.0
-280.50528 -225.25424 606.0
-278.07867 -226.74106 610.0
-275.1471 -227.85619 613.0
-272.17346 -228.9713 616.0
-270.4622 -231.20155 622.0
-266.95554 -231.94496 624.0
-236.03374 -236.03374 635.0
-231.94496 -236.40544 636.0
-227.48448 -236.40544 636.0
-314.00098 -217.38527 574.0
-313.21548 -219.6576 580.0
-309.68076 -220.0363 581.0
-307.71002 -221.5512 585.0
-305.16418 -222.68736 588.0
-302.06427 -223.4448 590.0
-298.9363 -224.20224 592.0
-295.78033 -224.95967 594.0
-292.59628 -225.7171 596.0
-289.3842 -226.47456 598.0
-286.144 -227.232 600.0
-282.4059 -227.6107 601.0
-280.50528 -229.5043 606.0
-277.6228 -230.64047 609.0
-274.69824 -231.77664 612.0
-272.17346 -233.2915 616.0
-269.1577 -234.42767 619.0
-266.5277 -235.94257 623.0
-263.0 -236.7 625.0
-255.04689 -237.45743 627.0
-249.85 -236.7 625.0
-246.25217 -237.45743 627.0
-242.62628 -238.21487 629.0
-238.59361 -238.5936 630.0
-234.54692 -238.9723 631.0
-231.21556 -240.10847 634.0
-227.48448 -240.8659 636.0
-223.37468 -241.24463 637.0
-314.00098 -221.41092 574.0
-312.67545 -223.3396 579.0
-309.68076 -224.11105 581.0
-307.18402 -225.26826 584.0
-304.6452 -226.42546 587.0
-302.06427 -227.58266 590.0
-298.43134 -227.9684 591.0
-295.28238 -228.73985 593.0
-292.59628 -229.89706 596.0
-289.3842 -230.66852 598.0
-285.6671 -231.05426 599.0
-282.4059 -231.82571 601.0
-279.11667 -232.5972 603.0
-277.16693 -234.52586 608.0
-273.80054 -235.29732 610.0
-271.2898 -236.84026 614.0
-268.72287 -238.3832 618.0
-264.38864 -238.3832 618.0
-260.47522 -238.76892 619.0
-257.3753 -239.92612 622.0
-253.4198 -240.31186 623.0
-249.85 -241.08331 625.0
-246.25217 -241.8548 627.0
-242.24054 -242.24051 628.0
-238.21489 -242.62625 629.0
-234.1752 -243.012 630.0
-231.21556 -244.55492 634.0
-227.12682 -244.94066 635.0
-223.024 -245.3264 636.0
-314.00098 -225.43657 574.0
-312.13544 -227.00755 578.0
-309.68076 -228.1858 581.0
-306.13202 -228.57854 582.0
-304.1262 -230.14952 586.0
-301.5523 -231.32776 589.0
-297.92642 -231.72052 590.0
-294.78442 -232.50603 592.0
-292.10535 -233.68427 595.0
-288.90027 -234.46974 597.0
-285.19022 -234.86249 598.0
-281.936 -235.64798 600.0
-279.11667 -236.82623 603.0
-276.7111 -238.39722 607.0
-273.80054 -239.57545 610.0
-270.84793 -240.7537 613.0
-266.98358 -241.14645 614.0
-263.53302 -241.93193 616.0
-260.0544 -242.71744 618.0
-256.96155 -243.89568 621.0
-253.01303 -244.28842 622.0
-249.05048 -244.68115 623.0
-245.07393 -245.0739 624.0
-242.24054 -246.6449 628.0
-238.21489 -247.03764 629.0
-234.1752 -247.43037 630.0
-230.48619 -248.21588 632.0
-227.48448 -249.78687 636.0
-223.37468 -250.17963 637.0
-313.45392 -229.0625 573.0
-311.5954 -230.66153 577.0
-309.14774 -231.8608 580.0
-305.60602 -232.26056 581.0
-303.08823 -233.45985 584.0
-300.52835 -234.65913 587.0
-297.42145 -235.45866 589.0
-294.2865 -236.25816 591.0
-291.12347 -237.0577 593.0
-288.41632 -238.25696 596.0
-284.7133 -238.65672 597.0
-281.936 -239.856 600.0
-278.65378 -240.65553 602.0
-275.34348 -241.45506 604.0
-273.35168 -243.45386 609.0
-269.96426 -244.25337 611.0
-266.54874 -245.0529 613.0
-263.10522 -245.8524 615.0
-260.0544 -247.0517 618.0
-256.54773 -247.8512 620.0
-253.01303 -248.65073 622.0
-249.05048 -249.05049 623.0
-245.46667 -249.85 625.0
-241.85481 -250.64954 627.0
-238.21489 -251.44907 629.0
-234.54692 -252.24857 631.0
-230.48619 -252.64833 632.0
-227.48448 -254.24736 636.0
-312.9069 -232.67435 572.0
-311.05536 -234.30147 576.0
-308.0817 -235.11499 578.0
-305.08002 -235.92854 580.0
-302.56924 -237.14888 583.0
-299.50443 -237.9624 585.0
-296.9165 -239.18272 588.0
-293.78854 -239.99628 590.0
-291.12347 -241.21658 593.0
-287.4485 -241.62337 594.0
-284.2364 -242.43692 596.0
-281.4661 -243.65723 599.0
-278.1909 -244.47078 601.0
-274.8876 -245.28433 603.0
-272.90283 -247.31819 608.0
-269.96426 -248.53851 611.0
-266.54874 -249.35207 613.0
-262.6774 -249.75882 614.0
-260.0544 -251.38593 618.0
-256.96155 -252.60626 621.0
-253.01303 -253.01302 622.0
-249.45024 -253.82657 624.0
-245.46667 -254.23334 625.0
-242.24054 -255.45367 628.0
-238.97234 -256.67398 631.0
-234.54692 -256.67398 631.0
-230.48619 -257.08075 632.0
-311.8128 -235.8584 570.0
-309.4353 -237.09976 573.0
-306.48267 -237.92734 575.0
-303.502 -238.75491 577.0
-301.53125 -240.41005 581.0
-298.48047 -241.23763 583.0
-295.90656 -242.47899 586.0
-292.79263 -243.30656 588.0
-290.1416 -244.54793 591.0
-286.96457 -245.3755 593.0
-283.7595 -246.20306 595.0
-280.99622 -247.44443 598.0
-278.1909 -248.68579 601.0
-276.25522 -250.75473 606.0
-272.90283 -251.5823 608.0
-269.96426 -252.82365 611.0
-266.54874 -253.65123 613.0
-263.10522 -254.4788 615.0
-260.0544 -255.72017 618.0
-257.3753 -257.3753 622.0
-253.4198 -257.7891 623.0
-249.05048 -257.7891 623.0
-246.25217 -259.44424 627.0
-242.62628 -260.27182 629.0
-239.35106 -261.51318 632.0
-234.54692 -261.0994 631.0

