ply
format ascii 1.0
comment made by @arthurmuchir
element vertex 1125
property float x
property float y
property float z
end_header
-113.237274 -100.65535 598.0
-109.408005 -100.992 600.0
-121.01507 -104.323326 595.0
-116.84215 -104.323326 595.0
-113.04792 -104.67399 597.0
-109.22565 -105.02466 599.0
-128.7087 -107.94921 592.0
-124.767204 -108.13156 593.0
-120.6083 -108.13156 593.0
-116.4494 -108.13156 593.0
-112.85855 -108.6786 596.0
-109.043304 -109.0433 598.0
-132.63615 -111.91178 591.0
-128.27386 -111.72241 590.0
-124.136 -111.72241 590.0
-120.20152 -111.91178 591.0
-116.4494 -112.2905 593.0
-112.85855 -112.85858 596.0
-108.86096 -113.04793 597.0
-185.5728 -106.0416 540.0
-181.78561 -106.0416 540.0
-177.99841 -106.0416 540.0
-135.16096 -114.68204 584.0
-131.96288 -115.46753 588.0
-127.83904 -115.46753 588.0
-123.925606 -115.66391 589.0
-119.99814 -115.86027 590.0
-116.4494 -116.44939 593.0
-112.6692 -116.84214 595.0
-184.54185 -109.21865 537.0
-180.7757 -109.21865 537.0
-177.00952 -109.21865 537.0
-174.21121 -109.8288 540.0
-139.01831 -118.57444 583.0
-135.16096 -118.77781 584.0
-131.2896 -118.9812 585.0
-127.40421 -119.184586 586.0
-123.7152 -119.59136 588.0
-119.99814 -119.99814 590.0
-116.4494 -120.60829 593.0
-94.890396 -125.0828 615.0
-90.72448 -125.28619 616.0
-86.40427 -125.28619 616.0
-184.1982 -112.7744 536.0
-180.1024 -112.564 535.0
-176.6799 -112.7744 536.0
-173.88858 -113.4056 539.0
-142.37067 -122.032 580.0
-138.5414 -122.2424 581.0
-134.46666 -122.2424 581.0
-131.06517 -122.873604 584.0
-127.40421 -123.2944 586.0
-123.7152 -123.7152 588.0
-120.20152 -124.3464 591.0
-102.6752 -128.344 610.0
-98.55839 -128.5544 611.0
-94.73611 -129.1856 614.0
-90.72448 -129.6064 616.0
-86.68481 -130.0272 618.0
-183.5109 -116.09872 534.0
-179.76578 -116.09872 534.0
-176.35027 -116.31613 535.0
-173.24336 -116.75095 537.0
-170.42401 -117.4032 540.0
-146.69087 -126.31714 581.0
-142.37067 -126.09973 580.0
-138.30293 -126.09973 580.0
-134.46666 -126.31714 581.0
-130.84074 -126.75196 583.0
-127.40421 -127.40421 586.0
-123.7152 -127.839035 588.0
-106.42734 -131.9699 607.0
-102.33857 -132.1873 608.0
-98.39708 -132.62213 610.0
-94.27322 -132.83954 611.0
-90.28264 -133.27437 613.0
-86.40427 -133.9266 616.0
-183.16724 -119.619415 533.0
-179.76578 -119.843834 534.0
-176.02063 -119.843834 534.0
-172.92075 -120.29268 536.0
-170.10841 -120.965965 539.0
-154.57387 -130.16747 580.0
-149.98714 -129.71861 578.0
-146.18591 -129.94304 579.0
-142.1252 -129.94304 579.0
-138.30293 -130.16747 580.0
-134.46666 -130.39188 581.0
-131.06517 -131.06517 584.0
-127.40421 -131.51402 586.0
-110.13738 -135.5537 604.0
-106.25201 -136.00255 606.0
-102.00192 -136.00255 606.0
-98.07447 -136.45142 608.0
-93.96464 -136.67584 609.0
-89.98808 -137.12468 611.0
-186.55467 -123.12607 532.0
-182.82358 -123.12607 532.0
-179.42914 -123.357506 533.0
-175.69101 -123.357506 533.0
-172.92075 -124.051834 536.0
-170.10841 -124.746155 539.0
-157.82104 -133.54086 577.0
-153.77435 -133.54086 577.0
-149.46815 -133.30943 576.0
-145.42848 -133.30943 576.0
-141.63428 -133.54086 577.0
-138.30293 -134.23518 580.0
-134.69809 -134.69807 582.0
-131.2896 -135.39238 585.0
-122.032005 -138.86398 600.0
-118.02039 -139.09543 601.0
-113.80535 -139.09543 601.0
-109.95504 -139.5583 603.0
-105.90134 -139.78975 604.0
-102.00192 -140.25262 606.0
-98.07447 -140.7155 608.0
-93.96464 -140.94695 609.0
-191.00111 -127.3341 534.0
-186.55467 -126.85719 532.0
-182.13628 -126.38029 530.0
-178.75584 -126.61873 531.0
-175.69101 -127.095634 533.0
-172.92075 -127.811005 536.0
-170.10841 -128.52635 539.0
-161.5872 -137.34914 576.0
-157.274 -137.11069 575.0
-152.97485 -136.87222 574.0
-148.94916 -136.87222 574.0
-145.17601 -137.11069 575.0
-141.38881 -137.34914 576.0
-138.30293 -138.30295 580.0
-134.46666 -138.5414 581.0
-125.81921 -142.59511 598.0
-121.82862 -142.83357 599.0
-117.62764 -142.83357 599.0
-113.426636 -142.83357 599.0
-109.408005 -143.072 600.0
-105.726006 -143.78738 603.0
-102.00192 -144.50273 606.0
-97.913155 -144.7412 607.0
-190.64345 -130.83374 533.0
-185.85333 -130.09734 530.0
-182.13628 -130.09734 530.0
-178.75584 -130.34282 531.0
-175.69101 -130.83374 533.0
-172.92075 -131.57014 536.0
-164.76425 -140.65242 573.0
-160.7456 -140.65242 573.0
-156.72696 -140.65242 573.0
-152.70833 -140.65242 573.0
-148.68968 -140.65242 573.0
-145.17601 -141.14334 575.0
-141.38881 -141.38881 576.0
-138.30293 -142.37067 580.0
-129.57835 -146.29814 596.0
-125.39841 -146.29814 596.0
-121.21846 -146.29814 596.0
-117.23489 -146.54361 597.0
-113.237274 -146.78908 598.0
-109.408005 -147.28001 600.0
-105.55067 -147.77094 602.0
-102.00192 -148.7528 606.0
-194.38155 -134.57185 533.0
-190.28577 -134.31937 532.0
-185.50267 -133.56194 529.0
-181.79263 -133.56194 529.0
-178.75584 -134.06688 531.0
-176.02063 -134.82433 534.0
-172.59814 -135.0768 535.0
-164.4767 -144.41856 572.0
-160.18454 -144.16608 571.0
-156.17993 -144.16608 571.0
-152.44182 -144.41856 572.0
-148.68968 -144.67105 573.0
-144.92352 -144.92352 574.0
-141.87975 -145.93344 578.0
-138.30293 -146.4384 580.0
-133.085 -149.72064 593.0
-128.7087 -149.46817 592.0
-124.5568 -149.46817 592.0
-120.6083 -149.72064 593.0
-116.84215 -150.2256 595.0
-113.04792 -150.73056 597.0
-109.22565 -151.23553 599.0
-105.375336 -151.74048 601.0
-198.49138 -138.56944 534.0
-194.38155 -138.30995 533.0
-189.5704 -137.53146 530.0
-185.50267 -137.27197 529.0
-182.13628 -137.53146 530.0
-179.0925 -138.05046 532.0
-176.02063 -138.56944 534.0
-172.92075 -139.08842 536.0
-171.29367 -147.39221 568.0
-167.31007 -147.39221 568.0
-163.32652 -147.39221 568.0
-159.62347 -147.6517 569.0
-155.9064 -147.9112 570.0
-152.44182 -148.43019 572.0
-148.68968 -148.68968 573.0
-144.67105 -148.68968 573.0
-136.31818 -152.84158 589.0
-132.1873 -152.84158 589.0
-128.27386 -153.10107 590.0
-124.346405 -153.36057 591.0
-120.6083 -153.87955 593.0
-117.03852 -154.65802 596.0
-113.04792 -154.91751 597.0
-109.22565 -155.43651 599.0
-202.6152 -142.58107 535.0
-198.49138 -142.31456 534.0
-194.01686 -141.78154 532.0
-189.5704 -141.24854 530.0
-185.85333 -141.24854 530.0
-182.82358 -141.78154 532.0
-179.76578 -142.31456 534.0
-176.35027 -142.58107 535.0
-182.27654 -150.57628 565.0
-178.31401 -150.57628 565.0
-174.35147 -150.57628 565.0
-170.69052 -150.84277 566.0
-166.72096 -150.84277 566.0
-163.03896 -151.10928 567.0
-159.06241 -151.10928 567.0
-155.63289 -151.64229 569.0
-152.17531 -152.17531 571.0
-149.20868 -153.24133 575.0
-145.42848 -153.50783 576.0
-140.21057 -156.70592 588.0
-136.08673 -156.70592 588.0
-131.96288 -156.70592 588.0
-127.83904 -156.70592 588.0
-124.136 -157.23892 590.0
-120.404915 -157.77194 592.0
-117.03852 -158.83798 596.0
-85.8432 -163.10208 612.0
-81.6843 -163.36859 613.0
-77.38513 -163.36859 613.0
-206.75307 -146.60672 536.0
-202.2365 -146.05968 534.0
-198.11967 -145.78615 533.0
-194.01686 -145.51263 532.0
-190.28577 -145.51263 532.0
-186.55467 -145.51263 532.0
-183.5109 -146.05968 534.0
-180.1024 -146.3332 535.0
-185.5798 -153.99174 563.0
-181.95392 -154.26527 564.0
-178.31401 -154.5388 565.0
-174.35147 -154.5388 565.0
-170.38895 -154.5388 565.0
-166.4264 -154.5388 565.0
-162.46387 -154.5388 565.0
-158.50134 -154.5388 565.0
-155.35936 -155.35936 568.0
-152.17531 -156.17992 571.0
-148.94916 -157.00047 574.0
-146.94336 -159.18863 582.0
-143.598 -160.0092 585.0
-139.49521 -160.0092 585.0
-135.62386 -160.28271 586.0
-131.73845 -160.55623 587.0
-127.83904 -160.82976 588.0
-124.346405 -161.65031 591.0
-120.404915 -161.92383 592.0
-93.96464 -166.57367 609.0
-89.840805 -166.8472 610.0
-85.8432 -167.39424 612.0
-81.6843 -167.66776 613.0
-77.51137 -167.94127 614.0
-210.11948 -150.08533 535.0
-205.98161 -149.8048 534.0
-202.2365 -149.8048 534.0
-198.11967 -149.52426 533.0
-194.38155 -149.52426 533.0
-190.64345 -149.52426 533.0
-187.25601 -149.8048 534.0
-183.85454 -150.08533 535.0
-180.7757 -150.6464 537.0
-184.59094 -157.09866 560.0
-181.3087 -157.65973 562.0
-177.3672 -157.65973 562.0
-173.7343 -157.94026 563.0
-170.08739 -158.2208 564.0
-166.13184 -158.2208 564.0
-162.46387 -158.50133 565.0
-158.50134 -158.50133 565.0
-155.35936 -159.34293 568.0
-151.9088 -159.90399 570.0
-148.68968 -160.74559 573.0
-146.4384 -162.70934 580.0
-142.8616 -163.27039 582.0
-139.25676 -163.83145 584.0
-135.39241 -164.11198 585.0
-131.51402 -164.39253 586.0
-127.83904 -164.95358 588.0
-124.136 -165.51466 590.0
-97.42924 -169.44212 604.0
-93.65605 -170.28372 607.0
-89.69352 -170.84479 609.0
-85.56267 -171.12534 610.0
-81.41779 -171.40585 611.0
-77.51137 -172.24745 614.0
-209.72672 -153.54991 534.0
-205.98161 -153.54991 534.0
-201.85776 -153.26236 533.0
-198.49138 -153.54991 534.0
-194.74623 -153.54991 534.0
-191.00111 -153.54991 534.0
-187.95734 -154.125 536.0
-184.54185 -154.41255 537.0
-186.49858 -159.30084 554.0
-182.94281 -159.5884 555.0
-180.01825 -160.45102 558.0
-176.42041 -160.73857 559.0
-173.11714 -161.31367 561.0
-169.7858 -161.88876 563.0
-166.4264 -162.46385 565.0
-162.17632 -162.1763 564.0
-158.50134 -162.46385 565.0
-155.35936 -163.32649 568.0
-151.64232 -163.61403 569.0
-148.68968 -164.76422 573.0
-145.93344 -166.20197 578.0
-142.37067 -166.77705 580.0
-138.77985 -167.35216 582.0
-135.39241 -168.21478 585.0
-131.51402 -168.50233 586.0
-127.83904 -169.07742 588.0
-105.375336 -172.81552 601.0
-101.32864 -173.10309 602.0
-97.26794 -173.39062 603.0
-93.501755 -174.25327 606.0
-89.39896 -174.54082 607.0
-85.4224 -175.1159 609.0
-81.28454 -175.40346 610.0
-77.51137 -176.55363 614.0
-213.47183 -157.29504 534.0
-209.72672 -157.29504 534.0
-205.59587 -157.00049 533.0
-201.85776 -157.00049 533.0
-198.49138 -157.29504 534.0
-195.11095 -157.58961 535.0
-192.07416 -158.17873 537.0
-189.36 -159.06241 540.0
-186.94743 -160.24065 544.0
-184.47874 -161.4189 548.0
-182.28354 -162.8917 553.0
-179.0504 -163.48082 555.0
-176.10481 -164.3645 558.0
-172.80853 -164.95361 560.0
-169.48422 -165.54272 562.0
-165.54272 -165.54272 562.0
-162.46387 -166.4264 565.0
-158.50134 -166.4264 565.0
-154.81233 -166.72096 566.0
-151.64232 -167.60464 569.0
-148.68968 -168.7829 573.0
-145.42848 -169.66656 576.0
-142.1252 -170.55025 579.0
-138.5414 -171.13937 581.0
-135.16096 -172.02304 584.0
-131.2896 -172.31761 585.0
-121.21846 -175.55779 596.0
-117.23489 -175.85233 597.0
-113.426636 -176.44145 599.0
-109.22565 -176.44145 599.0
-105.200005 -176.73601 600.0
-101.160324 -177.03058 601.0
-97.10662 -177.32513 602.0
-93.19317 -177.91425 604.0
-89.25168 -178.50337 606.0
-85.4224 -179.38705 609.0
-217.21698 -161.04016 534.0
-213.07208 -160.73859 533.0
-209.33398 -160.73859 533.0
-205.59587 -160.73859 533.0
-202.2365 -161.04016 534.0
-198.49138 -161.04016 534.0
-195.47563 -161.64333 536.0
-193.1472 -162.84961 540.0
-190.06134 -163.45276 542.0
-187.29108 -164.35747 545.0
-184.14209 -164.96062 547.0
-181.29468 -165.86534 550.0
-178.72778 -167.07164 554.0
-175.7892 -167.97635 557.0
-172.49995 -168.57951 559.0
-169.48422 -169.48422 562.0
-165.83728 -169.78578 563.0
-162.46387 -170.38895 565.0
-158.50134 -170.38895 565.0
-155.08585 -170.99208 567.0
-151.64232 -171.59523 569.0
-148.68968 -172.80153 573.0
-145.42848 -173.70625 576.0
-141.87975 -174.30939 578.0
-138.5414 -175.21411 581.0
-134.92953 -175.81726 583.0
-124.5568 -178.53142 592.0
-120.6083 -178.833 593.0
-116.84215 -179.43614 595.0
-113.04792 -180.03928 597.0
-108.86096 -180.03928 597.0
-104.849335 -180.34087 598.0
-100.992004 -180.94402 600.0
-96.94532 -181.24557 601.0
-93.501755 -182.75345 606.0
-89.25168 -182.75345 606.0
-216.81021 -164.4767 533.0
-212.67232 -164.1681 532.0
-208.94124 -164.1681 532.0
-205.59587 -164.4767 533.0
-202.2365 -164.78528 534.0
-198.49138 -164.78528 534.0
-195.47563 -165.40247 536.0
-193.1472 -166.6368 540.0
-189.71068 -166.94539 541.0
-187.63474 -168.48831 546.0
-184.14209 -168.7969 547.0
-181.6243 -170.03127 551.0
-178.72778 -170.95702 554.0
-175.7892 -171.88278 557.0
-172.80853 -172.80855 560.0
-169.48422 -173.4257 562.0
-166.13184 -174.04288 564.0
-162.46387 -174.35147 565.0
-158.78188 -174.66006 566.0
-155.35936 -175.27724 568.0
-151.64232 -175.58582 569.0
-148.43019 -176.51158 572.0
-144.92352 -177.12875 574.0
-141.87975 -178.3631 578.0
-138.5414 -179.28886 581.0
-135.85529 -181.14038 587.0
-132.1873 -181.75755 589.0
-128.05646 -181.75755 589.0
-124.136 -182.06615 590.0
-120.20152 -182.37473 591.0
-116.4494 -182.9919 593.0
-112.6692 -183.60907 595.0
-108.86096 -184.22624 597.0
-105.02467 -184.84341 599.0
-100.992004 -185.152 600.0
-96.94532 -185.46059 601.0
-220.5483 -168.2148 533.0
-216.40343 -167.8992 532.0
-211.8728 -167.268 530.0
-208.15575 -167.268 530.0
-204.8244 -167.5836 531.0
-202.2365 -168.5304 534.0
-198.49138 -168.5304 534.0
-195.84032 -169.4772 537.0
-193.1472 -170.424 540.0
-190.412 -171.3708 543.0
-187.63474 -172.3176 546.0
-184.47874 -172.9488 548.0
-181.6243 -173.8956 551.0
-178.72778 -174.8424 554.0
-176.10481 -176.1048 558.0
-173.11714 -177.0516 561.0
-169.48422 -177.3672 562.0
-166.13184 -177.9984 564.0
-162.46387 -178.314 565.0
-158.78188 -178.6296 566.0
-155.35936 -179.2608 568.0
-151.64232 -179.5764 569.0
-148.1707 -180.2076 571.0
-144.92352 -181.1544 574.0
-141.63428 -182.1012 577.0
-138.5414 -183.3636 581.0
-135.39241 -184.626 585.0
-131.96288 -185.5728 588.0
-127.83904 -185.5728 588.0
-123.925606 -185.8884 589.0
-119.79476 -185.8884 589.0
-116.25302 -186.8352 592.0
-112.479836 -187.4664 594.0
-108.86096 -188.4132 597.0
-105.02467 -189.0444 599.0
-224.70721 -172.27551 534.0
-220.13452 -171.6303 532.0
-215.99666 -171.30768 531.0
-211.8728 -170.98506 530.0
-208.15575 -170.98506 530.0
-204.43867 -170.98506 530.0
-201.85776 -171.95291 533.0
-198.49138 -172.27551 534.0
-195.84032 -173.24335 537.0
-193.1472 -174.2112 540.0
-190.412 -175.17903 543.0
-187.97838 -176.4695 547.0
-185.15201 -177.43733 550.0
-182.28354 -178.40517 553.0
-179.0504 -179.0504 555.0
-176.10481 -180.01823 558.0
-173.11714 -180.98608 561.0
-169.7858 -181.6313 563.0
-166.4264 -182.27654 565.0
-162.46387 -182.27654 565.0
-158.50134 -182.27654 565.0
-155.35936 -183.24437 568.0
-151.64232 -183.56699 569.0
-147.91121 -183.8896 570.0
-144.67105 -184.85744 573.0
-141.38881 -185.82527 576.0
-138.30293 -187.11572 580.0
-135.16096 -188.40619 584.0
-131.2896 -188.7288 585.0
-127.62163 -189.37402 587.0
-123.7152 -189.69664 588.0
-119.79476 -190.01924 589.0
-116.056656 -190.66447 591.0
-112.6692 -191.95493 595.0
-108.86096 -192.60016 597.0
-267.12384 -181.95392 552.0
-228.45232 -176.02063 534.0
-224.70721 -176.02063 534.0
-219.72073 -175.03175 531.0
-215.18312 -174.37251 529.0
-211.47304 -174.37251 529.0
-207.76299 -174.37251 529.0
-204.43867 -174.70213 530.0
-201.85776 -175.69101 533.0
-198.49138 -176.02063 534.0
-196.5697 -177.66876 539.0
-193.50488 -178.32802 541.0
-190.412 -178.98727 543.0
-187.97838 -180.30577 547.0
-185.48865 -181.62428 551.0
-182.61316 -182.61316 554.0
-179.37302 -183.27243 556.0
-176.73601 -184.59093 560.0
-173.42572 -185.25018 562.0
-169.7858 -185.57982 563.0
-166.13184 -185.90944 564.0
-162.46387 -186.23906 565.0
-158.50134 -186.23906 565.0
-155.08585 -186.89832 567.0
-151.37581 -187.22794 568.0
-147.6517 -187.55757 569.0
-144.67105 -188.87607 573.0
-141.14334 -189.53532 575.0
-138.0645 -190.85384 579.0
-134.69809 -191.84271 582.0
-131.06517 -192.50197 584.0
-127.186806 -192.83159 585.0
-123.7152 -193.82047 588.0
-119.99814 -194.47974 590.0
-268.04962 -183.80544 546.0
-265.6721 -184.81535 549.0
-262.77557 -185.48863 551.0
-236.11089 -182.7955 543.0
-228.45232 -179.76575 534.0
-224.2864 -179.42911 533.0
-219.30695 -178.41919 530.0
-215.18312 -178.08255 529.0
-211.47304 -178.08255 529.0
-207.76299 -178.08255 529.0
-204.43867 -178.41919 530.0
-201.85776 -179.42911 533.0
-198.86307 -180.10239 535.0
-196.5697 -181.44896 539.0
-193.50488 -182.12224 541.0
-191.464 -183.80544 546.0
-188.32204 -184.4787 548.0
-185.82529 -185.82527 552.0
-182.61316 -186.49855 554.0
-179.69563 -187.50847 557.0
-176.73601 -188.51839 560.0
-173.7343 -189.5283 563.0
-170.08739 -189.86496 564.0
-166.13184 -189.86496 564.0
-162.46387 -190.20158 565.0
-158.50134 -190.20158 565.0
-154.81233 -190.53824 566.0
-151.37581 -191.2115 568.0
-147.91121 -191.88478 570.0
-144.41856 -192.55807 572.0
-141.14334 -193.568 575.0
-137.82603 -194.57791 578.0
-134.46666 -195.58783 581.0
-131.06517 -196.59775 584.0
-127.186806 -196.93439 585.0
-269.64865 -183.5109 534.0
-265.90353 -183.5109 534.0
-262.15842 -183.5109 534.0
-260.8329 -185.22916 539.0
-258.00653 -185.91647 541.0
-250.27081 -188.6657 549.0
-246.4205 -188.6657 549.0
-241.24466 -187.63474 546.0
-236.11089 -186.60378 543.0
-229.30794 -184.1982 536.0
-224.2864 -183.16724 533.0
-219.30695 -182.13629 530.0
-215.18312 -181.79262 529.0
-211.47304 -181.79262 529.0
-208.15575 -182.13629 530.0
-204.8244 -182.47993 531.0
-201.85776 -183.16724 533.0
-198.86307 -183.85454 535.0
-196.5697 -185.22916 539.0
-193.86256 -186.26012 542.0
-191.464 -187.63474 546.0
-188.6657 -188.6657 549.0
-186.49858 -190.38396 554.0
-183.27243 -191.07127 556.0
-180.01825 -191.75858 558.0
-177.0516 -192.78954 561.0
-173.42572 -193.1332 562.0
-169.7858 -193.47684 563.0
-166.13184 -193.8205 564.0
-162.46387 -194.16414 565.0
-158.50134 -194.16414 565.0
-154.5388 -194.16414 565.0
-151.37581 -195.19511 568.0
-147.91121 -195.88242 570.0
-144.67105 -196.91338 573.0
-141.14334 -197.60068 575.0
-137.82603 -198.63164 578.0
-134.23521 -199.31894 580.0
-285.6741 -185.50267 529.0
-278.254 -185.50267 529.0
-274.54398 -185.50267 529.0
-271.3459 -185.85335 530.0
-267.6288 -185.85335 530.0
-264.40967 -186.20401 531.0
-260.6856 -186.20401 531.0
-258.4133 -187.25601 534.0
-255.62198 -187.95734 536.0
-258.44135 -192.86667 550.0
-253.65825 -192.16534 548.0
-250.27081 -192.516 549.0
-245.97163 -192.16534 548.0
-240.36098 -190.76266 544.0
-235.24123 -189.71068 541.0
-229.30794 -187.95734 536.0
-224.2864 -186.90533 533.0
-219.30695 -185.85335 530.0
-215.18312 -185.50267 529.0
-211.47304 -185.50267 529.0
-208.15575 -185.85335 530.0
-205.21014 -186.55467 532.0
-202.2365 -187.25601 534.0
-199.23479 -187.95734 536.0
-196.9344 -189.36002 540.0
-194.22025 -190.41202 543.0
-191.464 -191.46402 546.0
-190.0403 -193.91867 553.0
-186.8352 -194.62001 555.0
-183.60205 -195.32133 557.0
-180.01825 -195.67201 558.0
-177.0516 -196.72401 561.0
-173.42572 -197.07468 562.0
-169.48422 -197.07468 562.0
-166.4264 -198.12668 565.0
-162.17632 -197.77602 564.0
-158.50134 -198.12668 565.0
-154.81233 -198.47734 566.0
-151.1093 -198.82802 567.0
-147.6517 -199.52934 569.0
-144.41856 -200.58134 572.0
-140.89787 -201.28267 574.0
-137.58759 -202.33467 577.0
-134.23521 -203.38667 580.0
-287.74307 -188.13968 526.0
-284.59406 -188.49736 527.0
-280.36502 -188.13968 526.0
-277.202 -188.49736 527.0
-272.987 -188.13968 526.0
-269.29797 -188.13968 526.0
-266.11392 -188.49736 527.0
-262.4179 -188.49736 527.0
-259.2128 -188.85504 528.0
-256.96155 -189.92809 531.0
-259.43726 -194.57793 544.0
-256.0919 -194.9356 545.0
-252.73248 -195.29329 546.0
-247.99147 -194.57793 544.0
-243.27852 -193.86256 542.0
-239.03545 -193.50488 541.0
-234.80641 -193.1472 540.0
-229.30794 -191.71648 536.0
-223.8656 -190.28577 532.0
-219.30695 -189.5704 530.0
-215.58987 -189.5704 530.0
-211.8728 -189.5704 530.0
-208.54848 -189.92809 531.0
-205.21014 -190.28577 532.0
-202.2365 -191.00113 534.0
-199.60649 -192.07416 537.0
-196.9344 -193.1472 540.0
-194.93561 -194.9356 545.0
-192.516 -196.36633 549.0
-190.38396 -198.15472 554.0
-186.8352 -198.5124 555.0
-183.60205 -199.22777 557.0
-180.01825 -199.58545 558.0
-177.0516 -200.65848 561.0
-173.42572 -201.01616 562.0
-169.48422 -201.01616 562.0
-165.54272 -201.01616 562.0
-161.88878 -201.37384 563.0
-158.50134 -202.0892 565.0
-154.5388 -202.0892 565.0
-150.84279 -202.44688 566.0
-147.39221 -203.16225 568.0
-144.16608 -204.23528 571.0
-140.40694 -204.59297 572.0
-137.34912 -206.02368 576.0
-286.649 -191.0993 524.0
-282.97397 -191.0993 524.0
-279.29898 -191.0993 524.0
-276.15002 -191.464 525.0
-272.46802 -191.464 525.0
-268.27405 -191.0993 524.0
-264.0941 -190.73462 523.0
-260.92404 -191.0993 524.0
-257.74002 -191.464 525.0
-254.05801 -191.464 525.0
-258.48343 -197.66379 542.0
-255.15208 -198.02849 543.0
-250.41808 -197.29909 541.0
-246.62387 -197.29909 541.0
-242.38081 -196.9344 540.0
-238.59361 -196.9344 540.0
-234.80641 -196.9344 540.0
-229.30794 -195.47562 536.0
-224.2864 -194.38156 533.0
-219.72073 -193.65216 531.0
-215.58987 -193.28748 530.0
-211.8728 -193.28748 530.0
-208.54848 -193.65216 531.0
-205.59587 -194.38156 533.0
-202.6152 -195.11093 535.0
-199.97821 -196.20502 538.0
-198.02847 -198.02849 543.0
-195.29327 -199.12256 546.0
-192.86667 -200.58133 550.0
-190.38396 -202.0401 554.0
-186.8352 -202.4048 555.0
-183.60205 -203.13419 557.0
-180.01825 -203.49889 558.0
-176.73601 -204.22827 560.0
-173.11714 -204.59297 561.0
-169.18265 -204.59297 561.0
-165.24817 -204.59297 561.0
-161.60123 -204.95766 562.0
-158.22081 -205.68704 564.0
-154.5388 -206.05173 565.0
-150.57628 -206.05173 565.0
-147.13272 -206.78111 567.0
-143.40865 -207.14581 568.0
-140.16147 -208.2399 571.0
-137.11067 -209.69867 575.0
-133.30945 -210.06337 576.0
-110.96495 -213.7103 586.0
-106.85515 -213.7103 586.0
-98.4672 -213.3456 585.0
-94.52572 -213.7103 586.0
-90.10731 -212.98091 584.0
-283.36673 -192.54405 518.0
-280.81387 -193.28748 520.0
-277.69995 -193.65918 521.0
-271.94202 -192.17235 517.0
-268.31613 -192.17235 517.0
-264.69022 -192.17235 517.0
-261.06433 -192.17235 517.0
-258.43433 -192.91576 519.0
-255.77628 -193.65918 521.0
-253.09016 -194.40259 523.0
-257.5296 -200.7216 540.0
-253.74242 -200.7216 540.0
-249.95522 -200.7216 540.0
-246.16801 -200.7216 540.0
-242.38081 -200.7216 540.0
-238.59361 -200.7216 540.0
-234.37157 -200.3499 539.0
-229.30794 -199.23477 536.0
-224.70721 -198.49135 534.0
-220.13452 -197.74794 532.0
-215.99666 -197.37624 531.0
-212.27257 -197.37624 531.0
-209.33398 -198.11964 533.0
-205.98161 -198.49135 534.0
-202.99394 -199.23477 536.0
-200.7216 -200.7216 540.0
-198.39317 -202.20842 544.0
-196.00865 -203.69525 548.0
-193.91867 -205.55379 553.0
-190.38396 -205.92549 554.0
-186.49858 -205.92549 554.0
-183.27243 -206.6689 556.0
-179.69563 -207.04062 557.0
-176.10481 -207.41232 558.0
-172.49995 -207.78403 559.0
-168.57951 -207.78403 559.0
-165.24817 -208.52744 561.0
-161.60123 -208.89914 562.0
-157.94028 -209.27084 563.0
-154.26529 -209.64255 564.0
-150.57628 -210.01427 565.0
-146.61374 -210.01427 565.0
-143.40865 -211.1294 568.0
-139.916 -211.8728 570.0
-136.63377 -212.98792 573.0
-133.07802 -213.73132 575.0
-129.26976 -214.10304 576.0
-125.447495 -214.47475 577.0
-122.032005 -215.58986 580.0
-117.96427 -215.58986 580.0
-113.896545 -215.58986 580.0
-110.20752 -216.33327 582.0
-106.49045 -217.07668 584.0
-102.39467 -217.07668 584.0
-98.4672 -217.4484 585.0
-94.2031 -217.07668 584.0
-90.10731 -217.07668 584.0
-86.60064 -218.56354 588.0
-82.47681 -218.56354 588.0
-281.72562 -195.0408 515.0
-277.5737 -194.66206 514.0
-273.96884 -194.66206 514.0
-270.364 -194.66206 514.0
-266.75916 -194.66206 514.0
-263.15433 -194.66206 514.0
-260.0544 -195.0408 515.0
-257.43845 -195.79823 517.0
-254.7944 -196.55566 519.0
-260.34897 -203.75136 538.0
-257.0527 -204.13007 539.0
-252.80261 -203.75136 538.0
-249.49232 -204.13007 539.0
-245.71214 -204.13007 539.0
-241.4831 -203.75136 538.0
-237.70995 -203.75136 538.0
-233.93675 -203.75136 538.0
-229.30794 -202.99391 536.0
-224.70721 -202.23647 534.0
-220.5483 -201.85776 533.0
-216.40343 -201.47903 532.0
-212.67232 -201.47903 532.0
-209.72672 -202.23647 534.0
-206.75307 -202.99391 536.0
-203.75136 -203.75136 538.0
-201.09332 -204.88751 541.0
-198.75787 -206.4024 545.0
-196.36632 -207.91727 549.0
-193.56801 -209.05344 552.0
-190.38396 -209.81087 554.0
-186.49858 -209.81087 554.0
-182.61316 -209.81087 554.0
-179.37302 -210.56831 556.0
-175.7892 -210.94704 557.0
-172.19136 -211.32576 558.0
-168.27794 -211.32576 558.0
-164.65903 -211.70447 559.0
-161.02614 -212.0832 560.0
-157.37921 -212.46191 561.0
-153.99176 -213.21935 563.0
-150.57628 -213.9768 565.0
-146.61374 -213.9768 565.0
-143.15616 -214.73424 567.0
-139.67053 -215.49167 569.0
-136.39531 -216.62784 572.0
-132.61513 -217.00656 573.0
-128.8209 -217.38527 574.0
-125.23008 -218.1427 576.0
-121.4008 -218.52144 577.0
-117.5575 -218.90016 578.0
-113.70017 -219.27887 579.0
-109.8288 -219.6576 580.0
-105.94341 -220.0363 581.0
-101.86867 -220.0363 581.0
-97.96225 -220.41504 582.0
-94.0418 -220.79376 583.0
-90.10731 -221.17247 584.0
-86.30608 -221.9299 586.0
-82.47681 -222.68736 588.0
-278.4434 -196.33826 509.0
-275.95364 -197.10973 511.0
-272.90283 -197.49545 512.0
-269.312 -197.49545 512.0
-266.24017 -197.88118 513.0
-263.15433 -198.26692 514.0
-259.54944 -198.26692 514.0
-257.43845 -199.42413 517.0
-253.81255 -199.42413 517.0
-251.63841 -200.58133 520.0
-255.62198 -206.75305 536.0
-251.86284 -206.75305 536.0
-248.56656 -207.1388 537.0
-244.34454 -206.75305 536.0
-240.5854 -206.75305 536.0
-236.82625 -206.75305 536.0
-233.0671 -206.75305 536.0
-229.30794 -206.75305 536.0
-224.70721 -205.98158 534.0
-220.9621 -205.98158 534.0
-217.21698 -205.98158 534.0
-213.47183 -205.98158 534.0
-210.11948 -206.36732 535.0
-207.13881 -207.1388 537.0
-204.5088 -208.29599 540.0
-201.83673 -209.45319 543.0
-199.12256 -210.61038 546.0
-196.36632 -211.7676 549.0
-193.21735 -212.53906 551.0
-189.353 -212.53906 551.0
-186.16194 -213.31053 553.0
-182.61316 -213.69626 554.0
-178.72778 -213.69626 554.0
-175.158 -214.08199 555.0
-171.5742 -214.46773 556.0
-167.67479 -214.46773 556.0
-164.06992 -214.85345 557.0
-160.45105 -215.23918 558.0
-157.09868 -216.01067 560.0
-153.71825 -216.78212 562.0
-150.30978 -217.5536 564.0
-146.61374 -217.93932 565.0
-143.15616 -218.7108 567.0
-139.67053 -219.48225 569.0
-136.15686 -220.25372 571.0
-132.3837 -220.63947 572.0
-128.59648 -221.0252 573.0
-124.57784 -221.0252 573.0
-121.19041 -222.1824 576.0
-117.35411 -222.56812 577.0
-113.5038 -222.95386 578.0
-109.63944 -223.3396 579.0
-105.76107 -223.72531 580.0
-101.86867 -224.11105 581.0
-97.96225 -224.4968 582.0
-93.88049 -224.4968 582.0
-90.10731 -225.26826 584.0
-86.158806 -225.654 585.0
-82.33653 -226.42546 587.0
-277.89633 -199.51529 508.0
-274.87357 -199.90805 509.0
-272.3698 -200.69354 511.0
-268.786 -200.69354 511.0
-265.2022 -200.69354 511.0
-262.64233 -201.47902 513.0
-259.54944 -201.87178 514.0
-255.9446 -201.87178 514.0
-253.32161 -202.65727 516.0
-251.1545 -203.83551 519.0
-254.66818 -209.7267 534.0
-250.92303 -209.7267 534.0
-247.64081 -210.11946 535.0
-243.43282 -209.7267 534.0
-240.13654 -210.11946 535.0
-236.38441 -210.11946 535.0
-233.0671 -210.51219 536.0
-229.30794 -210.51219 536.0
-225.128 -210.11946 535.0
-220.9621 -209.7267 534.0
-217.21698 -209.7267 534.0
-213.87161 -210.11946 535.0
-210.5122 -210.51219 536.0
-207.52454 -211.2977 538.0
-204.88754 -212.47592 541.0
-202.20845 -213.65417 544.0
-199.12256 -214.43967 546.0
-196.00865 -215.22516 548.0
-192.86667 -216.01067 550.0
-189.00934 -216.01067 550.0
-185.82529 -216.79614 552.0
-182.28354 -217.18889 553.0
-178.72778 -217.58165 554.0
-174.8424 -217.58165 554.0
-171.26561 -217.97438 555.0
-167.3732 -217.97438 555.0
-164.06992 -218.75989 557.0
-160.45105 -219.15263 558.0
-157.09868 -219.93811 560.0
-153.71825 -220.72362 562.0
-150.30978 -221.50911 564.0
-146.61374 -221.90186 565.0
-143.40865 -223.0801 568.0
-139.67053 -223.47284 569.0
-136.39531 -224.65108 572.0
-132.3837 -224.65108 572.0
-128.59648 -225.04384 573.0
-124.57784 -225.04384 573.0
-121.19041 -226.22208 576.0
-117.35411 -226.61482 577.0
-113.30743 -226.61482 577.0
-109.63944 -227.4003 579.0
-105.76107 -227.79306 580.0
-101.86867 -228.1858 581.0
-97.96225 -228.57854 582.0
-94.0418 -228.9713 583.0
-90.10731 -229.36404 584.0
-277.3493 -202.67833 507.0
-273.79352 -202.67833 507.0
-270.77078 -203.0781 508.0
-266.156 -202.27856 506.0
-263.12625 -202.67833 507.0
-260.08246 -203.0781 508.0
-257.5296 -203.87761 510.0
-254.45074 -204.27736 511.0
-251.84882 -205.07689 513.0
-248.7349 -205.47665 514.0
-253.71436 -212.67233 532.0
-250.45314 -213.0721 533.0
-246.71506 -213.0721 533.0
-243.43282 -213.47185 534.0
-239.6877 -213.47185 534.0
-235.94258 -213.47185 534.0
-232.63228 -213.87161 535.0
-229.30794 -214.27136 536.0
-225.128 -213.87161 535.0
-221.37587 -213.87161 535.0
-218.03052 -214.27136 536.0
-214.27136 -214.27136 536.0
-210.90497 -214.67113 537.0
-208.296 -215.8704 540.0
-205.64496 -217.0697 543.0
-202.20845 -217.46947 544.0
-199.12256 -218.26897 546.0
-195.65097 -218.66873 547.0
-192.16534 -219.0685 548.0
-188.6657 -219.46826 549.0
-185.48865 -220.26776 551.0
-181.6243 -220.26776 551.0
-178.40518 -221.06729 553.0
-174.8424 -221.46706 554.0
-170.95703 -221.46706 554.0
-167.07164 -221.46706 554.0
-163.77536 -222.26657 556.0
-160.45105 -223.0661 558.0
-157.09868 -223.8656 560.0
-153.71825 -224.66513 562.0
-150.57628 -225.8644 565.0
-146.61374 -225.8644 565.0
-143.40865 -227.06369 568.0
-140.16147 -228.26297 571.0
-136.39531 -228.66273 572.0
-128.37206 -228.66273 572.0
-117.35411 -230.66153 577.0
-113.30743 -230.66153 577.0
-275.7082 -205.01376 504.0
-272.17343 -205.01376 504.0
-268.63873 -205.01376 504.0
-265.104 -205.01376 504.0
-262.0883 -205.42055 505.0
-259.05853 -205.82732 506.0
-256.0147 -206.23409 507.0
-252.45897 -206.23409 507.0
-250.86694 -207.86118 511.0
-247.28314 -207.86118 511.0
-252.76054 -215.58989 530.0
-249.51337 -215.99663 531.0
-246.25217 -216.40341 532.0
-243.43282 -217.21696 534.0
-240.13654 -217.62375 535.0
-236.82625 -218.03052 536.0
-233.50192 -218.4373 537.0
-229.73576 -218.4373 537.0
-226.39041 -218.84407 538.0
-222.61723 -218.84407 538.0
-219.25085 -219.25082 539.0
-215.8704 -219.6576 540.0
-212.0832 -219.6576 540.0
-208.296 -219.6576 540.0
-205.64496 -220.87793 543.0
-202.20845 -221.28471 544.0
-199.12256 -222.09824 546.0
-195.29327 -222.09824 546.0
-192.16534 -222.91179 548.0
-188.6657 -223.31856 549.0
-185.15201 -223.72534 550.0
-181.6243 -224.13213 551.0
-178.08257 -224.5389 552.0
-174.8424 -225.35242 554.0
-170.95703 -225.35242 554.0
-167.3732 -225.7592 555.0
-164.06992 -226.57275 557.0
-160.73859 -227.3863 559.0
-157.37921 -228.19983 561.0
-154.26529 -229.42017 564.0
-150.57628 -229.82693 565.0
-272.973 -206.47955 499.0
-270.55338 -207.30711 501.0
-267.5727 -207.7209 502.0
-264.052 -207.7209 502.0
-261.5693 -208.54848 504.0
-258.03458 -208.54848 504.0
-255.0048 -208.96227 505.0
-252.45897 -209.78984 507.0
-249.88507 -210.61742 509.0
-247.28314 -211.44499 511.0
-252.76054 -219.30695 530.0
-249.51337 -219.72073 531.0
-246.25217 -220.13452 532.0
-243.43282 -220.9621 534.0
-240.5854 -221.78964 536.0
-237.2681 -222.20343 537.0
-234.80641 -223.4448 540.0
-231.01921 -223.4448 540.0
-227.6528 -223.85858 541.0
-223.44481 -223.4448 540.0
-219.65761 -223.4448 540.0
-215.8704 -223.4448 540.0
-212.47594 -223.85858 541.0
-209.06747 -224.27237 542.0
-205.64496 -224.68617 543.0
-202.20845 -225.09996 544.0
-199.12256 -225.92754 546.0
-195.29327 -225.92754 546.0
-191.81467 -226.34132 547.0
-188.32204 -226.75511 548.0
-185.15201 -227.58266 550.0
-181.6243 -227.99644 551.0
-178.08257 -228.41023 552.0
-174.8424 -229.23781 554.0
-170.95703 -229.23781 554.0
-167.97636 -230.47917 557.0
-164.36447 -230.89296 558.0
-161.02614 -231.72054 560.0
-154.5388 -233.78946 565.0

