ply
format ascii 1.0
comment made by @arthurmuchir
element vertex 988
property float x
property float y
property float z
end_header
-105.94341 -97.793915 581.0
-102.39467 -98.298874 584.0
-98.80385 -98.80383 587.0
-94.848335 -98.97215 588.0
-110.20752 -102.04398 582.0
-105.94341 -101.86866 581.0
-102.21934 -102.21932 583.0
-98.4672 -102.569984 585.0
-94.68703 -102.92066 587.0
-113.70017 -105.578705 579.0
-109.63944 -105.578705 579.0
-105.76107 -105.761055 580.0
-101.86867 -105.9434 581.0
-98.13057 -106.30809 583.0
-94.68703 -107.03748 587.0
-117.35411 -109.26073 577.0
-113.30743 -109.26073 577.0
-109.26072 -109.26073 577.0
-105.39637 -109.450096 578.0
-101.518005 -109.63945 579.0
-97.6256 -109.82881 580.0
-120.559204 -112.52193 573.0
-116.54057 -112.52193 573.0
-112.7183 -112.71831 574.0
-109.07136 -113.111046 576.0
-105.21403 -113.30743 577.0
-101.518005 -113.700165 579.0
-97.45729 -113.700165 579.0
-124.36043 -116.33717 572.0
-120.3488 -116.33717 572.0
-116.13379 -116.13379 571.0
-112.325554 -116.33717 572.0
-108.881996 -116.94734 575.0
-105.21403 -117.3541 577.0
-101.69334 -117.96427 580.0
-127.47434 -119.5072 568.0
-123.925606 -119.928 570.0
-119.928 -119.928 570.0
-115.930405 -119.928 570.0
-112.12918 -120.1384 571.0
-108.881996 -120.98 575.0
-105.39637 -121.6112 578.0
-77.00641 -128.344 610.0
-72.728264 -128.344 610.0
-131.45793 -123.49076 568.0
-127.249916 -123.27335 567.0
-123.490776 -123.49076 568.0
-119.5072 -123.49076 568.0
-115.930405 -123.9256 570.0
-112.325554 -124.36042 572.0
-109.07136 -125.23007 576.0
-85.0016 -131.75247 606.0
-80.88478 -131.9699 607.0
-76.880165 -132.40472 609.0
-72.84748 -132.83954 611.0
-134.72614 -126.801056 565.0
-130.76361 -126.801056 565.0
-126.80106 -126.801056 565.0
-122.83854 -126.801056 565.0
-119.5072 -127.47434 568.0
-115.930405 -127.92319 570.0
-112.325554 -128.37204 572.0
-88.368004 -134.65599 600.0
-84.44054 -135.10484 602.0
-80.48502 -135.5537 604.0
-76.50146 -136.00255 606.0
-72.60904 -136.67584 609.0
-134.72614 -130.76358 565.0
-130.76361 -130.76358 565.0
-126.80106 -130.76358 565.0
-122.83854 -130.76358 565.0
-119.29681 -131.22647 567.0
-116.13379 -132.15224 571.0
-112.521935 -132.61511 573.0
-96.13879 -137.93822 596.0
-92.2674 -138.40111 598.0
-88.22072 -138.63255 599.0
-84.16 -138.86398 600.0
-80.21851 -139.32687 602.0
-76.50146 -140.25262 606.0
-72.48981 -140.7155 608.0
-138.19774 -134.24924 563.0
-134.24924 -134.24924 563.0
-130.53217 -134.4877 564.0
-126.80106 -134.72614 565.0
-122.83854 -134.72614 565.0
-119.717606 -135.67996 569.0
-116.33718 -136.39532 572.0
-99.81377 -141.40283 593.0
-95.81617 -141.6413 594.0
-91.80453 -141.87975 595.0
-87.92616 -142.35664 597.0
-84.01974 -142.83357 599.0
-80.08526 -143.31047 601.0
-76.24897 -144.02582 604.0
-142.39871 -138.4432 564.0
-137.95227 -137.95227 562.0
-134.01079 -137.95227 562.0
-130.06929 -137.95227 562.0
-126.35221 -138.19774 563.0
-122.83854 -138.68867 565.0
-119.717606 -139.67055 569.0
-107.58453 -144.82535 590.0
-103.622 -145.07082 591.0
-99.47713 -145.07082 591.0
-95.49356 -145.31627 592.0
-91.49594 -145.56174 593.0
-87.6316 -146.05267 595.0
-83.87947 -146.78908 598.0
-80.08526 -147.52547 601.0
-145.83525 -141.89377 562.0
-141.89377 -141.89377 562.0
-137.7068 -141.64128 561.0
-133.77232 -141.64128 561.0
-130.06929 -141.89377 562.0
-126.57664 -142.39873 564.0
-122.83854 -142.6512 565.0
-119.5072 -143.40865 568.0
-111.15432 -148.20576 587.0
-107.21984 -148.45825 588.0
-103.27134 -148.71072 589.0
-99.14049 -148.71072 589.0
-95.170944 -148.9632 590.0
-91.34165 -149.46817 592.0
-87.6316 -150.2256 595.0
-83.87947 -150.98305 598.0
-149.51025 -145.57576 561.0
-145.57576 -145.57576 561.0
-141.38881 -145.31627 560.0
-137.7068 -145.57576 561.0
-133.77232 -145.57576 561.0
-130.06929 -145.83527 562.0
-126.80106 -146.61372 565.0
-122.83854 -146.61372 565.0
-114.87841 -151.8036 585.0
-110.58624 -151.54411 584.0
-106.49045 -151.54411 584.0
-102.74534 -152.0631 586.0
-98.97217 -152.58208 588.0
-95.009636 -152.84158 589.0
-91.187355 -153.36057 591.0
-152.89769 -148.97722 559.0
-148.71074 -148.71072 558.0
-144.79727 -148.71072 558.0
-141.13632 -148.97722 559.0
-137.46133 -149.24373 560.0
-133.77232 -149.51024 561.0
-130.30074 -150.04324 563.0
-126.80106 -150.57628 565.0
-118.37105 -155.10689 582.0
-114.092926 -154.84038 581.0
-110.01815 -154.84038 581.0
-106.308105 -155.37338 583.0
-102.57001 -155.9064 585.0
-98.97217 -156.70592 588.0
-95.009636 -156.97243 589.0
-161.60123 -153.71823 562.0
-156.25706 -152.35063 557.0
-152.35065 -152.35063 557.0
-148.44423 -152.35063 557.0
-144.27829 -152.07712 556.0
-140.88383 -152.62415 558.0
-137.21587 -152.89767 559.0
-134.01079 -153.71823 562.0
-130.53217 -154.26527 564.0
-122.032005 -158.6416 580.0
-117.96427 -158.6416 580.0
-113.70017 -158.36807 579.0
-109.63944 -158.36807 579.0
-105.94341 -158.91512 581.0
-102.57001 -160.0092 585.0
-98.97217 -160.82976 588.0
-95.009636 -161.10327 589.0
-163.4808 -155.69598 555.0
-159.58841 -155.69598 555.0
-155.696 -155.69598 555.0
-151.53009 -155.41545 554.0
-147.64471 -155.41545 554.0
-144.27829 -155.97653 556.0
-140.63136 -156.25706 557.0
-136.9704 -156.53758 558.0
-134.01079 -157.65973 562.0
-130.76361 -158.50133 565.0
-129.26976 -161.58719 576.0
-125.23008 -161.58719 576.0
-121.4008 -161.86774 577.0
-117.35411 -161.86774 577.0
-113.30743 -161.86774 577.0
-109.63944 -162.42879 579.0
-105.94341 -162.98985 581.0
-102.21934 -163.55093 583.0
-98.80385 -164.67307 587.0
-170.33984 -158.72575 552.0
-167.07164 -159.30084 554.0
-163.18623 -159.30084 554.0
-159.01332 -159.01329 553.0
-155.13493 -159.01329 553.0
-151.53009 -159.30084 554.0
-147.64471 -159.30084 554.0
-143.7593 -159.30084 554.0
-140.37889 -159.87593 556.0
-136.9704 -160.45102 558.0
-134.01079 -161.60121 562.0
-130.76361 -162.46385 565.0
-127.923195 -163.90158 570.0
-124.57784 -164.76422 573.0
-120.76961 -165.05177 574.0
-116.947334 -165.33931 575.0
-113.111046 -165.62688 576.0
-109.45007 -166.20197 578.0
-105.94341 -167.0646 581.0
-177.75995 -162.30257 551.0
-173.58 -162.00801 550.0
-169.1055 -161.4189 548.0
-165.2622 -161.4189 548.0
-161.71342 -161.71346 549.0
-158.4382 -162.30257 551.0
-154.57387 -162.30257 551.0
-150.70953 -162.30257 551.0
-147.64471 -163.18625 554.0
-143.7593 -163.18625 554.0
-140.1264 -163.48082 555.0
-136.72495 -164.06993 557.0
-133.77232 -165.24817 561.0
-130.53217 -166.13185 564.0
-127.47434 -167.31009 568.0
-124.14301 -168.19377 571.0
-120.559204 -168.7829 573.0
-116.74396 -169.07745 574.0
-113.111046 -169.66656 576.0
-109.45007 -170.25569 578.0
-105.94341 -171.13937 581.0
-66.87914 -175.55779 596.0
-62.8044 -175.85233 597.0
-58.81382 -176.44145 599.0
-179.97617 -164.65904 546.0
-176.4695 -164.96062 547.0
-172.31761 -164.65904 546.0
-168.48834 -164.65904 546.0
-164.96063 -164.96062 547.0
-161.12431 -164.96062 547.0
-157.86311 -165.56377 549.0
-154.29333 -165.86534 550.0
-150.70953 -166.16692 551.0
-147.3782 -166.77007 553.0
-143.7593 -167.07164 554.0
-139.87392 -167.07164 554.0
-136.72495 -167.97635 557.0
-133.77232 -169.18265 561.0
-130.53217 -170.08737 564.0
-127.0255 -170.69052 566.0
-123.70818 -171.59523 569.0
-120.138405 -172.19838 571.0
-116.74396 -173.1031 574.0
-113.111046 -173.70625 576.0
-78.48622 -177.62671 589.0
-74.48161 -177.92827 590.0
-70.582184 -178.53142 592.0
-66.65472 -179.13457 594.0
-62.699203 -179.73772 596.0
-58.51926 -179.73772 596.0
-54.52166 -180.34087 598.0
-181.78561 -166.6368 540.0
-177.33914 -166.01964 538.0
-172.59814 -165.09387 535.0
-168.53041 -164.78528 534.0
-168.79692 -168.7969 547.0
-164.65904 -168.48831 546.0
-160.82976 -168.48831 546.0
-157.00047 -168.48831 546.0
-153.73227 -169.1055 548.0
-150.436 -169.72267 550.0
-147.3782 -170.64844 553.0
-143.7593 -170.95702 554.0
-139.87392 -170.95702 554.0
-136.72495 -171.88278 557.0
-133.77232 -173.11711 561.0
-130.53217 -174.04288 564.0
-126.80106 -174.35147 565.0
-123.70818 -175.58582 569.0
-120.138405 -176.20299 571.0
-116.54057 -176.82016 573.0
-89.79871 -179.59744 582.0
-85.864235 -179.90604 583.0
-82.056 -180.5232 585.0
-78.35297 -181.44896 588.0
-74.35537 -181.75755 589.0
-70.34373 -182.06615 590.0
-66.205864 -182.06615 590.0
-62.383602 -182.9919 593.0
-58.51926 -183.91766 596.0
-54.339317 -183.91766 596.0
-185.5728 -170.424 540.0
-179.76578 -168.5304 534.0
-175.36139 -167.8992 532.0
-170.66246 -166.9524 529.0
-166.95241 -166.9524 529.0
-163.55093 -167.268 530.0
-159.83388 -167.268 530.0
-156.1168 -167.268 530.0
-152.68727 -167.5836 531.0
-148.68268 -167.268 530.0
-145.51265 -167.8992 532.0
-141.78156 -167.8992 532.0
-138.56944 -168.5304 534.0
-135.32928 -169.1616 536.0
-136.9704 -176.1048 558.0
-133.53387 -176.73601 560.0
-130.06929 -177.3672 562.0
-126.80106 -178.314 565.0
-123.27336 -178.9452 567.0
-119.928 -179.892 570.0
-116.33718 -180.5232 572.0
-100.992004 -181.7856 576.0
-97.28897 -182.4168 578.0
-93.39657 -182.7324 579.0
-89.49013 -183.048 580.0
-85.71696 -183.6792 582.0
-81.77547 -183.9948 583.0
-77.9532 -184.626 585.0
-74.10289 -185.2572 587.0
-70.2245 -185.8884 589.0
-66.205864 -186.204 590.0
-62.2784 -186.8352 592.0
-58.617447 -188.4132 597.0
-189.36 -174.2112 540.0
-181.44896 -170.33983 528.0
-177.40929 -170.01723 527.0
-173.38364 -169.69461 526.0
-169.37201 -169.372 525.0
-166.0056 -169.69461 526.0
-162.3166 -169.69461 526.0
-158.92915 -170.01723 527.0
-155.52768 -170.33983 528.0
-152.11218 -170.66245 529.0
-148.40215 -170.66245 529.0
-144.6921 -170.66245 529.0
-141.24855 -170.98506 530.0
-137.79095 -171.30768 531.0
-134.57184 -171.95291 533.0
-131.07921 -172.27551 534.0
-133.77232 -180.98608 561.0
-130.06929 -181.3087 562.0
-126.80106 -182.27654 565.0
-122.83854 -182.27654 565.0
-119.717606 -183.56699 569.0
-116.13379 -184.21222 571.0
-112.521935 -184.85744 573.0
-108.50327 -184.85744 573.0
-104.48464 -184.85744 573.0
-100.641335 -185.18005 574.0
-96.952324 -185.82527 576.0
-93.07396 -186.14789 577.0
-89.18154 -186.4705 578.0
-85.4224 -187.11572 580.0
-81.494934 -187.43834 581.0
-77.819954 -188.40619 584.0
-73.976654 -189.0514 586.0
-70.2245 -190.01924 589.0
-66.205864 -190.34186 590.0
-191.00111 -176.02063 534.0
-185.15201 -174.04288 528.0
-180.76167 -173.38362 526.0
-176.73601 -173.05399 525.0
-172.72437 -172.72437 524.0
-169.0494 -172.72437 524.0
-165.3744 -172.72437 524.0
-161.69943 -172.72437 524.0
-158.326 -173.05399 525.0
-154.64401 -173.05399 525.0
-151.24954 -173.38362 526.0
-147.84106 -173.71324 527.0
-144.14505 -173.71324 527.0
-140.71553 -174.04288 528.0
-137.27197 -174.37251 529.0
-133.8144 -174.70213 530.0
-130.83374 -175.69101 533.0
-128.04945 -177.00952 537.0
-130.06929 -185.25018 562.0
-126.35221 -185.57982 563.0
-122.83854 -186.23906 565.0
-119.29681 -186.89832 567.0
-115.72703 -187.55757 569.0
-112.12918 -188.21683 571.0
-108.31392 -188.54645 572.0
-104.30229 -188.54645 572.0
-100.29067 -188.54645 572.0
-96.44737 -188.87607 573.0
-92.91264 -189.86496 576.0
-89.18154 -190.52422 578.0
-85.4224 -191.18346 580.0
-81.77547 -192.17235 583.0
-77.9532 -192.83159 585.0
-74.10289 -193.49084 587.0
-198.49138 -179.76575 534.0
-193.28748 -178.41919 530.0
-188.85506 -177.74591 528.0
-184.1 -176.736 525.0
-180.07436 -176.39935 524.0
-176.06274 -176.0627 523.0
-172.39474 -176.0627 523.0
-168.72678 -176.0627 523.0
-165.0588 -176.0627 523.0
-161.69943 -176.39935 524.0
-158.02444 -176.39935 524.0
-154.64401 -176.736 525.0
-151.24954 -177.07263 526.0
-147.56053 -177.07263 526.0
-144.14505 -177.40927 527.0
-140.44902 -177.40927 527.0
-137.27197 -178.08255 529.0
-133.56192 -178.08255 529.0
-130.09734 -178.41919 530.0
-127.81099 -180.43904 536.0
-124.283295 -180.77567 537.0
-126.127785 -189.19167 562.0
-122.83854 -190.20158 565.0
-118.87601 -190.20158 565.0
-115.320244 -190.87486 567.0
-111.54007 -191.2115 568.0
-107.74584 -191.54816 569.0
-103.93761 -191.88478 570.0
-99.94 -191.88478 570.0
-96.279045 -192.55807 572.0
-92.75134 -193.568 575.0
-89.02725 -194.24127 577.0
-85.4224 -195.25119 580.0
-81.91573 -196.59775 584.0
-206.36734 -183.85454 535.0
-201.85776 -183.16724 533.0
-197.00455 -182.13629 530.0
-192.55807 -181.44897 528.0
-187.78201 -180.41801 525.0
-183.39867 -179.73071 523.0
-179.38705 -179.38705 522.0
-175.38945 -179.0434 521.0
-171.73549 -179.0434 521.0
-168.08154 -179.0434 521.0
-164.74321 -179.38705 522.0
-161.39082 -179.73071 523.0
-158.02444 -180.07436 524.0
-154.64401 -180.41801 525.0
-151.24954 -180.76166 526.0
-147.56053 -180.76166 526.0
-144.14505 -181.10532 527.0
-140.44902 -181.10532 527.0
-137.01248 -181.44897 528.0
-133.56192 -181.79262 529.0
-129.85187 -181.79262 529.0
-126.85718 -182.8236 532.0
-123.82041 -183.85454 535.0
-120.51712 -184.54185 537.0
-116.968376 -184.88551 538.0
-118.87601 -194.16414 565.0
-115.11686 -194.5078 566.0
-111.34369 -194.85144 567.0
-107.55647 -195.19511 568.0
-103.93761 -195.88242 570.0
-99.94 -195.88242 570.0
-96.279045 -196.56972 572.0
-92.590034 -197.25702 574.0
-253.74242 -189.36002 540.0
-249.95522 -189.36002 540.0
-214.67113 -188.30801 537.0
-210.5122 -187.95734 536.0
-205.59587 -186.90533 533.0
-200.3429 -185.50267 529.0
-195.14601 -184.1 525.0
-190.7346 -183.39867 523.0
-186.35127 -182.69734 521.0
-182.69734 -182.69734 521.0
-178.69974 -182.34666 520.0
-175.05281 -182.34666 520.0
-171.40587 -182.34666 520.0
-168.08154 -182.69734 521.0
-164.74321 -183.04802 522.0
-161.39082 -183.39867 523.0
-158.326 -184.1 525.0
-154.93857 -184.45067 526.0
-151.5371 -184.80135 527.0
-147.84106 -184.80135 527.0
-144.14505 -184.80135 527.0
-140.71553 -185.15201 528.0
-137.27197 -185.50267 529.0
-133.56192 -185.50267 529.0
-129.85187 -185.50267 529.0
-126.61873 -186.20401 531.0
-123.58897 -187.25601 534.0
-120.06826 -187.60667 535.0
-116.53355 -187.95734 536.0
-112.9848 -188.30801 537.0
-114.91347 -198.12668 565.0
-110.95094 -198.12668 565.0
-107.36712 -198.82802 567.0
-103.93761 -199.88002 570.0
-100.29067 -200.58134 572.0
-96.44737 -200.932 573.0
-256.4776 -189.5704 530.0
-251.32983 -188.49736 527.0
-247.63379 -188.49736 527.0
-245.32642 -189.5704 530.0
-241.60934 -189.5704 530.0
-244.17622 -194.57793 544.0
-241.24466 -195.29329 546.0
-238.28502 -196.00865 548.0
-228.49442 -194.22025 543.0
-223.44481 -193.1472 540.0
-218.84407 -192.43185 538.0
-213.87161 -191.3588 535.0
-208.94124 -190.28577 532.0
-204.05295 -189.21274 529.0
-198.828 -187.782 525.0
-194.4026 -187.06665 523.0
-190.00523 -186.35129 521.0
-185.9936 -185.9936 520.0
-181.996 -185.63593 519.0
-178.01244 -185.27824 518.0
-174.71619 -185.63593 519.0
-171.40587 -185.9936 520.0
-168.08154 -186.35129 521.0
-164.74321 -186.70897 522.0
-161.69943 -187.42433 524.0
-158.326 -187.782 525.0
-155.82224 -189.21274 529.0
-152.39973 -189.5704 530.0
-147.84106 -188.49736 527.0
-144.14505 -188.49736 527.0
-146.84518 -197.08168 551.0
-142.98083 -197.08168 551.0
-133.8144 -189.5704 530.0
-130.09734 -189.5704 530.0
-126.85718 -190.28577 532.0
-123.58897 -191.00113 534.0
-119.84384 -191.00113 534.0
-116.53355 -191.71648 536.0
-113.195206 -192.43185 538.0
-114.91347 -202.0892 565.0
-110.95094 -202.0892 565.0
-107.55647 -203.16225 568.0
-277.1389 -194.74625 534.0
-273.90573 -195.11093 535.0
-271.1635 -195.84032 537.0
-258.93228 -189.64053 520.0
-255.77628 -190.00522 521.0
-253.09016 -190.73462 523.0
-250.376 -191.464 525.0
-246.69402 -191.464 525.0
-243.01201 -191.464 525.0
-241.15347 -192.92278 529.0
-241.93196 -196.5697 539.0
-238.59361 -196.9344 540.0
-235.67606 -197.66379 542.0
-231.01921 -196.9344 540.0
-226.8112 -196.5697 539.0
-221.78967 -195.47562 536.0
-217.21698 -194.74625 534.0
-212.67232 -194.01686 532.0
-207.76299 -192.92278 529.0
-203.28148 -192.19339 527.0
-198.4493 -191.0993 524.0
-193.65918 -190.00522 521.0
-189.64053 -189.64053 520.0
-185.27824 -188.91115 518.0
-181.64534 -188.91115 518.0
-178.01244 -188.91115 518.0
-174.71619 -189.27585 519.0
-171.40587 -189.64053 520.0
-168.08154 -190.00522 521.0
-165.0588 -190.73462 523.0
-161.69943 -191.0993 524.0
-158.326 -191.464 525.0
-156.41136 -193.65216 531.0
-153.54991 -194.74625 534.0
-153.1712 -199.12256 546.0
-149.61545 -199.48726 547.0
-146.31218 -200.21664 549.0
-142.98083 -200.94603 551.0
-139.11649 -200.94603 551.0
-135.4976 -201.31071 552.0
-127.33409 -194.74625 534.0
-123.58897 -194.74625 534.0
-119.84384 -194.74625 534.0
-116.31614 -195.11093 535.0
-113.195206 -196.20502 538.0
-114.50671 -205.32236 563.0
-287.74307 -195.5177 526.0
-284.59406 -195.8894 527.0
-281.96405 -196.63283 529.0
-279.306 -197.37624 531.0
-276.6199 -198.11964 533.0
-264.69022 -192.17235 517.0
-262.57922 -193.28748 520.0
-258.93228 -193.28748 520.0
-255.28534 -193.28748 520.0
-252.12234 -193.65918 521.0
-248.46838 -193.65918 521.0
-244.81444 -193.65918 521.0
-242.08626 -194.40259 523.0
-239.78587 -195.5177 526.0
-240.5854 -199.23477 536.0
-237.2681 -199.60648 537.0
-233.0671 -199.23477 536.0
-228.88014 -198.86307 535.0
-224.70721 -198.49135 534.0
-220.5483 -198.11964 533.0
-215.99666 -197.37624 531.0
-211.47304 -196.63283 529.0
-206.9775 -195.8894 527.0
-202.51001 -195.146 525.0
-198.07056 -194.40259 523.0
-193.65918 -193.65918 521.0
-189.64053 -193.28748 520.0
-185.63593 -192.91576 519.0
-181.996 -192.91576 519.0
-178.3561 -192.91576 519.0
-174.71619 -192.91576 519.0
-171.73549 -193.65918 521.0
-168.08154 -193.65918 521.0
-165.3744 -194.77429 524.0
-162.00801 -195.146 525.0
-158.62758 -195.5177 526.0
-159.94608 -201.83672 543.0
-156.42538 -202.20842 544.0
-153.1712 -202.95183 546.0
-149.34193 -202.95183 546.0
-145.77916 -203.32355 547.0
-142.20235 -203.69525 548.0
-138.35904 -203.69525 548.0
-134.7612 -204.06696 549.0
-131.14934 -204.43867 550.0
-127.75489 -205.18208 552.0
-124.10794 -205.55379 553.0
-120.44698 -205.92549 554.0
-117.1928 -207.04062 557.0
-287.196 -198.828 525.0
-283.514 -198.828 525.0
-275.03488 -195.41953 516.0
-271.94202 -195.79823 517.0
-268.31613 -195.79823 517.0
-264.69022 -195.79823 517.0
-261.06433 -195.79823 517.0
-257.43845 -195.79823 517.0
-253.81255 -195.79823 517.0
-250.18665 -195.79823 517.0
-246.56076 -195.79823 517.0
-242.93486 -195.79823 517.0
-239.30896 -195.79823 517.0
-242.52107 -201.47903 532.0
-239.6877 -202.23647 534.0
-235.94258 -202.23647 534.0
-232.19743 -202.23647 534.0
-228.02452 -201.85776 533.0
-223.8656 -201.47903 532.0
-219.72073 -201.10031 531.0
-215.58987 -200.7216 530.0
-211.47304 -200.34286 529.0
-206.9775 -199.58543 527.0
-202.51001 -198.828 525.0
-198.07056 -198.07056 523.0
-193.65918 -197.31311 521.0
-189.27583 -196.55566 519.0
-185.63593 -196.55566 519.0
-181.996 -196.55566 519.0
-178.3561 -196.55566 519.0
-175.05281 -196.9344 520.0
-171.73549 -197.31311 521.0
-168.40416 -197.69183 522.0
-165.3744 -198.44926 524.0
-162.3166 -199.20671 526.0
-163.15118 -204.88751 541.0
-159.35696 -204.88751 541.0
-155.8503 -205.26624 542.0
-152.61014 -206.02367 544.0
-149.34193 -206.78111 546.0
-145.51265 -206.78111 546.0
-141.68336 -206.78111 546.0
-137.85408 -206.78111 546.0
-134.27028 -207.15984 547.0
-130.67244 -207.53856 548.0
-127.292015 -208.296 550.0
-123.659096 -208.67471 551.0
-120.44698 -209.81087 554.0
-116.772 -210.1896 555.0
-280.0845 -197.49545 512.0
-277.5737 -198.26692 514.0
-273.96884 -198.26692 514.0
-270.364 -198.26692 514.0
-267.27814 -198.65266 515.0
-264.17825 -199.03839 516.0
-260.55936 -199.03839 516.0
-254.9487 -197.49545 512.0
-250.86694 -197.10973 511.0
-247.28314 -197.10973 511.0
-243.69933 -197.10973 511.0
-240.58539 -197.49545 512.0
-238.38321 -198.65266 515.0
-242.06522 -204.82439 531.0
-238.34114 -204.82439 531.0
-235.0589 -205.21013 532.0
-230.89296 -204.82439 531.0
-227.16888 -204.82439 531.0
-223.024 -204.43866 530.0
-218.89316 -204.05293 529.0
-215.18312 -204.05293 529.0
-210.67352 -203.28146 527.0
-206.58475 -202.89574 526.0
-202.12427 -202.12425 524.0
-197.69185 -201.35278 522.0
-193.65918 -200.96706 521.0
-189.64053 -200.58133 520.0
-185.9936 -200.58133 520.0
-182.34668 -200.58133 520.0
-178.69974 -200.58133 520.0
-175.38945 -200.96706 521.0
-172.06512 -201.35278 522.0
-169.0494 -202.12425 524.0
-166.0056 -202.89574 526.0
-166.01962 -207.52454 538.0
-162.54805 -207.91026 539.0
-159.06241 -208.29599 540.0
-155.2752 -208.29599 540.0
-152.04907 -209.06746 542.0
-148.79489 -209.83893 544.0
-144.97964 -209.83893 544.0
-141.42386 -210.22466 545.0
-137.60161 -210.22466 545.0
-134.02481 -210.61038 546.0
-130.19553 -210.61038 546.0
-126.597694 -210.99612 547.0
-123.210236 -211.7676 549.0
-119.79475 -212.53906 551.0
-116.1408 -212.92479 552.0
-112.26945 -212.92479 552.0
-108.398094 -212.92479 552.0
-104.71607 -213.31053 553.0
-101.02005 -213.69626 554.0
-97.13467 -213.69626 554.0
-279.53745 -200.69354 511.0
-275.95364 -200.69354 511.0
-272.90283 -201.08629 512.0
-269.838 -201.47902 513.0
-265.2022 -200.69354 511.0
-260.59445 -199.90805 509.0
-256.51968 -199.51529 508.0
-252.95692 -199.51529 508.0
-249.88507 -199.90805 509.0
-246.79921 -200.30078 510.0
-243.22241 -200.30078 510.0
-240.1155 -200.69354 511.0
-237.92032 -201.87178 514.0
-241.60934 -208.15572 530.0
-237.44344 -207.76297 529.0
-234.1752 -208.15572 530.0
-230.0233 -207.76297 529.0
-226.31325 -207.76297 529.0
-222.60321 -207.76297 529.0
-218.47937 -207.37022 528.0
-214.36957 -206.97748 527.0
-210.27376 -206.58475 526.0
-206.192 -206.19199 525.0
-202.12427 -205.79924 524.0
-197.69185 -205.01375 522.0
-193.65918 -204.621 521.0
-189.64053 -204.22826 520.0
-185.9936 -204.22826 520.0
-182.34668 -204.22826 520.0
-179.0434 -204.621 521.0
-175.72609 -205.01375 522.0
-172.72437 -205.79924 524.0
-170.01723 -206.97748 527.0
-166.95241 -207.76297 529.0
-165.71104 -210.90495 537.0
-162.24648 -211.2977 538.0
-159.06241 -212.08319 540.0
-155.2752 -212.08319 540.0
-151.76854 -212.47592 541.0
-148.24785 -212.86868 542.0
-144.71313 -213.26143 543.0
-141.16437 -213.65417 544.0
-137.34912 -213.65417 544.0
-133.77934 -214.04692 545.0
-129.95708 -214.04692 545.0
-126.36625 -214.43967 546.0
-122.76138 -214.83241 547.0
-119.57734 -216.01067 550.0
-115.72 -216.01067 550.0
-111.86267 -216.01067 550.0
-108.20171 -216.40341 551.0
-104.33736 -216.40341 551.0
-100.473015 -216.40341 551.0
-96.60867 -216.40341 551.0
-92.91264 -216.79614 552.0
-89.2026 -217.18889 553.0
-85.47851 -217.58165 554.0
-81.59312 -217.58165 554.0
-77.70773 -217.58165 554.0
-74.08886 -218.36713 556.0
-70.31569 -218.75989 557.0
-66.52847 -219.15263 558.0
-277.3493 -202.67833 507.0
-273.79352 -202.67833 507.0
-269.70474 -202.27856 506.0
-265.104 -201.47905 504.0
-261.5693 -201.47905 504.0
-259.05853 -202.27856 506.0
-255.0048 -201.87881 505.0
-251.96101 -202.27856 506.0
-248.41228 -202.27856 506.0
-245.34746 -202.67833 507.0
-241.7917 -202.67833 507.0
-239.1757 -203.47784 509.0
-236.53168 -204.27736 511.0
-233.8596 -205.07689 513.0
-237.44344 -211.47305 529.0
-233.73338 -211.47305 529.0
-229.58849 -211.0733 528.0
-226.31325 -211.47305 529.0
-221.76161 -210.67352 527.0
-218.06558 -210.67352 527.0
-213.96278 -210.27376 526.0
-210.27376 -210.27376 526.0
-206.192 -209.87401 525.0
-202.12427 -209.47424 524.0
-198.07056 -209.0745 523.0
-194.0309 -208.67473 522.0
-190.00523 -208.27496 521.0
-186.35127 -208.27496 521.0
-182.69734 -208.27496 521.0
-179.7307 -209.0745 523.0
-176.39938 -209.47424 524.0
-174.04288 -211.0733 528.0
-172.27551 -213.47185 534.0
-169.4772 -214.67113 537.0
-165.71104 -214.67113 537.0
-161.94489 -214.67113 537.0
-158.47328 -215.07089 538.0
-155.2752 -215.8704 540.0
-151.488 -215.8704 540.0
-147.7008 -215.8704 540.0
-143.9136 -215.8704 540.0
-140.90488 -217.0697 543.0
-137.34912 -217.46947 544.0
-133.53387 -217.46947 544.0
-129.71863 -217.46947 544.0
-126.36625 -218.26897 546.0
-122.76138 -218.66873 547.0
-119.14251 -219.0685 548.0
-115.2992 -219.0685 548.0
-111.4559 -219.0685 548.0
-107.6126 -219.0685 548.0
-103.76927 -219.0685 548.0
-100.108315 -219.46826 549.0
-96.433334 -219.868 550.0
-92.576004 -219.868 550.0
-88.87998 -220.26776 551.0
-85.169914 -220.66753 552.0
-81.29856 -220.66753 552.0
-77.56747 -221.06729 553.0
-73.82236 -221.46706 554.0
-69.93697 -221.46706 554.0
-66.29002 -222.26657 556.0
-62.615036 -223.0661 558.0
-274.6141 -204.20023 502.0
-271.09338 -204.20023 502.0
-267.5727 -204.20023 502.0
-264.052 -204.20023 502.0
-260.5313 -204.20023 502.0
-257.5226 -204.607 503.0
-254.49983 -205.01376 504.0
-250.96512 -205.01376 504.0
-247.92134 -205.42055 505.0
-245.34746 -206.23409 507.0
-241.7917 -206.23409 507.0
-238.70581 -206.64085 508.0
-236.0688 -207.4544 510.0
-232.94788 -207.86118 511.0
-236.09688 -213.96278 526.0
-232.40785 -213.96278 526.0
-228.71883 -213.96278 526.0
-225.02982 -213.96278 526.0
-221.3408 -213.96278 526.0
-217.65181 -213.96278 526.0
-213.96278 -213.96278 526.0
-210.27376 -213.96278 526.0
-206.192 -213.55602 525.0
-202.51001 -213.55602 525.0
-198.4493 -213.14923 524.0
-194.4026 -212.74246 523.0
-190.36992 -212.33568 522.0
-187.06665 -212.74246 523.0
-184.1 -213.55602 525.0
-181.10532 -214.36955 527.0
-179.0925 -216.40341 532.0
-176.02063 -217.21696 534.0
-172.92075 -218.03052 536.0
-169.1616 -218.03052 536.0
-165.40247 -218.03052 536.0
-161.64331 -218.03052 536.0
-158.17873 -218.4373 537.0
-154.98766 -219.25082 539.0
-151.20747 -219.25082 539.0
-147.7008 -219.6576 540.0
-143.9136 -219.6576 540.0
-140.3859 -220.06438 541.0
-137.09663 -220.87793 543.0
-133.53387 -221.28471 544.0
-129.71863 -221.28471 544.0
-126.13481 -221.69148 545.0
-122.76138 -222.505 547.0
-119.14251 -222.91179 548.0
-115.2992 -222.91179 548.0
-111.25252 -222.505 547.0
-107.41622 -222.505 547.0
-103.57992 -222.505 547.0
-99.74363 -222.505 547.0
-96.258 -223.31856 549.0
-92.576004 -223.72534 550.0
-88.71868 -223.72534 550.0
-85.015625 -224.13213 551.0
-81.15128 -224.13213 551.0
-77.4272 -224.5389 552.0
-73.6891 -224.94568 553.0
-69.81073 -224.94568 553.0
-66.05157 -225.35242 554.0
-62.390614 -226.16597 556.0
-271.8789 -205.65198 497.0
-269.4733 -206.47955 499.0
-265.97366 -206.47955 499.0
-263.0 -206.89334 500.0
-260.5313 -207.7209 502.0
-257.01062 -207.7209 502.0
-254.49983 -208.54848 504.0
-250.96512 -208.54848 504.0
-247.4304 -208.54848 504.0
-243.41176 -208.13469 503.0
-239.88408 -208.13469 503.0
-237.76604 -209.37605 506.0
-234.68016 -209.78984 507.0
-238.87415 -216.82422 524.0
-235.19916 -216.82422 524.0
-231.966 -217.238 525.0
-228.28401 -217.238 525.0
-224.602 -217.238 525.0
-220.92001 -217.238 525.0
-217.238 -217.238 525.0
-213.96278 -217.6518 526.0
-210.27376 -217.6518 526.0
-206.58475 -217.6518 526.0
-202.51001 -217.238 525.0
-198.828 -217.238 525.0
-194.7743 -216.82422 524.0
-190.7346 -216.41043 523.0
-187.78201 -217.238 525.0
-184.80135 -218.06558 527.0
-182.13628 -219.30695 530.0
-179.76578 -220.9621 534.0
-176.02063 -220.9621 534.0
-172.27551 -220.9621 534.0
-168.53041 -220.9621 534.0
-165.40247 -221.78964 536.0
-161.34174 -221.37585 535.0
-157.5896 -221.37585 535.0
-154.41257 -222.20343 537.0
-150.92694 -222.61722 538.0
-147.7008 -223.4448 540.0
-143.9136 -223.4448 540.0
-140.3859 -223.85858 541.0
-137.34912 -225.09996 544.0
-133.53387 -225.09996 544.0
-129.95708 -225.51375 545.0
-126.36625 -225.92754 546.0
-122.76138 -226.34132 547.0
-118.925095 -226.34132 547.0
-115.088806 -226.34132 547.0
-111.25252 -226.34132 547.0
-107.41622 -226.34132 547.0
-103.57992 -226.34132 547.0
-99.92597 -226.75511 548.0
-96.258 -227.1689 549.0
-92.576004 -227.58266 550.0
-88.71868 -227.58266 550.0
-85.015625 -227.99644 551.0
-81.15128 -227.99644 551.0
-77.286934 -227.99644 551.0
-73.6891 -228.82402 553.0
-69.93697 -229.23781 554.0
-66.05157 -229.23781 554.0
-62.390614 -230.06538 556.0

