ply
format ascii 1.0
comment made by @arthurmuchir
element vertex 953
property float x
property float y
property float z
end_header
-146.61374 -122.83853 565.0
-141.89377 -122.186295 562.0
-137.7068 -121.96888 561.0
-134.01079 -122.186295 562.0
-130.76361 -122.83853 565.0
-126.80106 -122.83853 565.0
-155.63289 -127.69876 569.0
-150.57628 -126.801056 565.0
-146.61374 -126.801056 565.0
-141.64128 -125.90335 561.0
-136.23401 -124.556786 555.0
-132.81851 -125.005646 557.0
-129.60641 -125.67893 560.0
-126.35221 -126.35221 563.0
-122.83854 -126.801056 565.0
-73.976654 -131.51402 586.0
-69.986046 -131.73845 587.0
-65.869225 -131.73845 587.0
-61.8576 -131.96288 588.0
-159.34294 -131.4579 568.0
-155.08585 -131.22647 567.0
-150.57628 -130.76358 565.0
-146.35423 -130.53215 564.0
-139.11649 -127.52344 551.0
-135.4976 -127.75487 552.0
-132.10316 -128.21776 554.0
-128.9121 -128.91206 557.0
-125.67893 -129.60638 560.0
-122.83854 -130.76358 565.0
-77.9532 -135.39238 585.0
-73.85041 -135.39238 585.0
-69.628365 -135.16095 584.0
-65.6448 -135.39238 585.0
-61.6472 -135.62383 586.0
-163.18623 -132.10315 554.0
-163.32652 -135.44151 568.0
-159.06241 -135.20305 567.0
-154.5388 -134.72614 565.0
-149.51025 -133.77232 561.0
-145.57576 -133.77232 561.0
-137.85408 -130.19553 546.0
-133.53387 -129.71863 544.0
-130.19553 -130.19553 546.0
-127.523445 -131.3878 551.0
-125.23007 -133.05698 558.0
-122.186295 -134.01079 562.0
-118.45521 -134.24924 563.0
-114.91347 -134.72614 565.0
-111.147316 -134.9646 566.0
-107.74584 -135.67996 569.0
-85.864235 -139.01831 583.0
-81.77547 -139.01831 583.0
-77.6867 -139.01831 583.0
-73.59793 -139.01831 583.0
-69.50914 -139.01831 583.0
-65.532585 -139.25676 584.0
-61.542004 -139.49521 585.0
-174.8424 -135.98854 554.0
-170.33984 -135.49762 552.0
-166.46849 -135.49762 552.0
-162.89168 -135.74307 553.0
-159.30086 -135.98854 554.0
-155.41547 -135.98854 554.0
-151.53009 -135.98854 554.0
-147.64471 -135.98854 554.0
-144.0188 -136.23401 555.0
-136.08672 -132.30655 539.0
-133.04294 -133.04294 542.0
-130.19553 -134.02481 546.0
-127.06057 -134.76122 549.0
-124.10794 -135.74307 553.0
-121.09923 -136.72495 557.0
-117.403206 -136.97041 558.0
-113.89654 -137.46135 560.0
-110.95094 -138.68867 565.0
-106.988396 -138.68867 565.0
-93.71919 -142.61613 581.0
-89.79871 -142.86162 582.0
-85.71696 -142.86162 582.0
-81.494934 -142.61613 581.0
-77.42019 -142.61613 581.0
-73.47169 -142.86162 582.0
-69.50914 -143.10707 583.0
-65.532585 -143.35254 584.0
-180.6354 -138.35905 548.0
-176.79211 -138.35905 548.0
-172.63321 -138.10657 547.0
-169.1055 -138.35905 548.0
-165.56378 -138.61153 549.0
-162.00801 -138.864 550.0
-158.4382 -139.11649 551.0
-154.57387 -139.11649 551.0
-150.98305 -139.36897 552.0
-147.3782 -139.62144 553.0
-138.56944 -134.82433 534.0
-135.0768 -135.0768 535.0
-132.30653 -136.08673 539.0
-129.24171 -136.84416 542.0
-126.36625 -137.85408 546.0
-123.210236 -138.61153 549.0
-119.35992 -138.61153 549.0
-115.930405 -139.11649 551.0
-112.67622 -139.87393 554.0
-108.98721 -140.1264 555.0
-106.60967 -142.14624 563.0
-102.04401 -146.94336 582.0
-97.96225 -146.94336 582.0
-93.55788 -146.4384 580.0
-89.64442 -146.69089 581.0
-85.56968 -146.69089 581.0
-81.494934 -146.69089 581.0
-77.553444 -146.94336 582.0
-73.59793 -147.19585 583.0
-69.50914 -147.19585 583.0
-183.80545 -141.68336 546.0
-179.97617 -141.68336 546.0
-176.14688 -141.68336 546.0
-172.31761 -141.68336 546.0
-168.48834 -141.68336 546.0
-164.65904 -141.68336 546.0
-161.12431 -141.94286 547.0
-157.57558 -142.20235 548.0
-154.0128 -142.46185 549.0
-150.436 -142.72133 550.0
-140.98204 -137.27197 529.0
-137.53146 -137.53146 530.0
-134.57184 -138.30995 533.0
-131.57014 -139.08842 536.0
-128.7648 -140.1264 540.0
-126.13481 -141.42387 545.0
-122.31253 -141.42387 545.0
-118.05544 -140.90488 543.0
-114.8784 -141.68336 546.0
-111.86267 -142.72133 550.0
-108.79083 -143.75931 554.0
-105.76107 -150.50613 580.0
-101.86867 -150.76562 581.0
-97.79392 -150.76562 581.0
-93.55788 -150.50613 580.0
-89.49013 -150.50613 580.0
-85.4224 -150.50613 580.0
-81.494934 -150.76562 581.0
-77.553444 -151.02512 582.0
-73.72417 -151.54411 584.0
-185.91647 -144.1801 541.0
-182.79553 -144.71312 543.0
-178.98727 -144.71312 543.0
-175.17905 -144.71312 543.0
-171.6864 -144.97963 544.0
-168.48834 -145.51263 546.0
-164.65904 -145.51263 546.0
-160.82976 -145.51263 546.0
-157.28802 -145.77914 547.0
-153.73227 -146.04564 548.0
-150.16249 -146.31215 549.0
-140.44902 -140.449 527.0
-137.01248 -140.71552 528.0
-133.8144 -141.24854 530.0
-131.07921 -142.31456 534.0
-127.81099 -142.84758 536.0
-123.58897 -142.31456 534.0
-120.292694 -142.84758 536.0
-116.968376 -143.38058 538.0
-113.616005 -143.9136 540.0
-111.25252 -145.77914 547.0
-107.6126 -146.04564 548.0
-109.63944 -154.30736 579.0
-105.57872 -154.30736 579.0
-101.69334 -154.57387 580.0
-97.79392 -154.84038 581.0
-93.55788 -154.57387 580.0
-89.49013 -154.57387 580.0
-85.56968 -154.84038 581.0
-81.494934 -154.84038 581.0
-189.36 -147.7008 540.0
-185.5728 -147.7008 540.0
-181.44897 -147.42728 539.0
-177.99841 -147.7008 540.0
-174.53381 -147.97432 541.0
-171.3708 -148.52135 543.0
-168.17973 -149.0684 545.0
-164.65904 -149.34192 546.0
-160.82976 -149.34192 546.0
-157.00047 -149.34192 546.0
-154.0128 -150.16248 549.0
-150.436 -150.436 550.0
-139.6495 -143.32446 524.0
-136.234 -143.598 525.0
-132.80449 -143.87152 526.0
-129.6064 -144.41855 528.0
-122.663216 -144.9656 530.0
-119.61941 -145.78615 533.0
-116.53355 -146.60672 536.0
-113.195206 -147.15375 538.0
-111.25252 -149.61543 547.0
-107.41622 -149.61543 547.0
-109.26072 -157.82103 577.0
-105.39637 -158.09456 578.0
-101.69334 -158.6416 580.0
-97.79392 -158.91512 581.0
-93.71919 -158.91512 581.0
-89.64442 -158.91512 581.0
-193.1472 -151.48799 540.0
-189.00934 -151.20746 539.0
-184.8855 -150.92693 538.0
-180.7757 -150.6464 537.0
-177.33914 -150.92693 538.0
-173.88858 -151.20746 539.0
-170.73961 -151.76852 541.0
-167.87115 -152.61012 544.0
-164.65904 -153.17119 546.0
-160.82976 -153.17119 546.0
-157.28802 -153.45174 547.0
-154.29333 -154.29333 550.0
-150.98305 -154.85439 552.0
-139.6495 -146.99945 524.0
-136.234 -147.27998 525.0
-132.552 -147.27998 525.0
-127.88814 -146.15785 521.0
-124.711105 -146.71893 523.0
-121.73745 -147.56053 526.0
-118.7217 -148.40213 529.0
-115.663895 -149.24373 532.0
-112.77441 -150.36586 536.0
-113.111046 -161.58719 576.0
-109.26072 -161.86774 577.0
-105.39637 -162.14825 578.0
-101.69334 -162.70934 580.0
-97.79392 -162.98985 581.0
-93.71919 -162.98985 581.0
-195.84032 -154.41255 537.0
-192.07416 -154.41255 537.0
-187.95734 -154.125 536.0
-183.85454 -153.83746 535.0
-180.1024 -153.83746 535.0
-176.6799 -154.125 536.0
-173.56598 -154.70009 538.0
-170.42401 -155.27519 540.0
-167.25398 -155.85028 542.0
-164.05591 -156.42537 544.0
-160.82976 -157.00047 546.0
-157.86311 -157.8631 549.0
-154.29333 -158.15067 550.0
-154.5388 -162.46385 565.0
-150.57628 -162.46385 565.0
-147.13272 -163.03896 567.0
-143.40865 -163.32649 568.0
-139.67053 -163.61403 569.0
-124.711105 -150.38689 523.0
-121.27457 -150.67445 524.0
-118.04842 -151.24954 526.0
-115.22907 -152.39972 530.0
-112.35361 -153.54991 534.0
-113.111046 -165.62688 576.0
-109.26072 -165.91441 577.0
-105.57872 -166.4895 579.0
-101.69334 -166.77705 580.0
-199.60649 -158.17873 537.0
-195.84032 -158.17873 537.0
-191.00111 -157.29504 534.0
-187.25601 -157.29504 534.0
-183.5109 -157.29504 534.0
-179.76578 -157.29504 534.0
-176.02063 -157.29504 534.0
-173.24336 -158.17873 537.0
-170.42401 -159.06241 540.0
-166.63681 -159.06241 540.0
-163.75433 -159.94609 543.0
-160.82976 -160.82976 546.0
-157.86311 -161.71346 549.0
-157.65974 -165.54272 562.0
-154.5388 -166.4264 565.0
-150.57628 -166.4264 565.0
-147.39221 -167.31009 568.0
-143.40865 -167.31009 568.0
-139.42508 -167.31009 568.0
-124.23419 -153.46576 521.0
-120.580246 -153.46576 521.0
-117.59957 -154.34944 524.0
-117.35411 -169.96114 577.0
-113.30743 -169.96114 577.0
-109.63944 -170.55025 579.0
-199.60649 -161.94489 537.0
-194.74623 -161.04016 534.0
-190.64345 -160.73859 533.0
-186.90533 -160.73859 533.0
-182.82358 -160.43703 532.0
-179.42914 -160.73859 533.0
-176.02063 -161.04016 534.0
-172.92075 -161.64333 536.0
-170.10841 -162.54803 539.0
-166.63681 -162.84961 540.0
-163.75433 -163.75433 543.0
-160.82976 -164.65904 546.0
-157.28802 -164.96062 547.0
-157.65974 -169.48422 562.0
-154.5388 -170.38895 565.0
-150.84279 -170.69052 566.0
-147.39221 -171.29366 568.0
-143.66112 -171.59523 569.0
-139.42508 -171.29366 568.0
-124.23419 -157.11972 521.0
-120.81169 -157.42128 522.0
-117.37514 -157.72285 523.0
-113.92458 -158.02443 524.0
-117.760895 -174.61096 579.0
-113.896545 -174.91254 580.0
-202.2365 -164.78528 534.0
-198.49138 -164.78528 534.0
-193.65216 -163.85951 531.0
-189.92807 -163.85951 531.0
-185.85333 -163.55095 530.0
-182.13628 -163.55095 530.0
-178.75584 -163.85951 531.0
-175.69101 -164.4767 533.0
-172.27551 -164.78528 534.0
-170.10841 -166.32822 539.0
-166.63681 -166.6368 540.0
-164.05591 -167.87115 544.0
-160.82976 -168.48831 546.0
-160.73859 -172.49995 559.0
-157.94028 -173.7343 563.0
-154.5388 -174.35147 565.0
-150.57628 -174.35147 565.0
-147.39221 -175.27724 568.0
-143.66112 -175.58582 569.0
-139.67053 -175.58582 569.0
-135.4415 -175.27724 568.0
-121.04314 -161.39084 523.0
-117.37514 -161.39084 523.0
-124.79525 -177.12875 574.0
-121.19041 -177.74593 576.0
-117.760895 -178.67168 579.0
-90.28264 -189.16364 613.0
-86.264 -189.7808 615.0
-205.98161 -168.5304 534.0
-201.85776 -168.2148 533.0
-197.00455 -167.268 530.0
-192.92276 -166.9524 529.0
-189.21272 -166.9524 529.0
-185.50267 -166.9524 529.0
-181.79263 -166.9524 529.0
-178.4192 -167.268 530.0
-175.69101 -168.2148 533.0
-172.27551 -168.5304 534.0
-169.7928 -169.7928 538.0
-166.63681 -170.424 540.0
-164.35747 -172.002 545.0
-160.82976 -172.3176 546.0
-160.73859 -176.4204 559.0
-157.65974 -177.3672 562.0
-154.5388 -178.314 565.0
-150.57628 -178.314 565.0
-146.87323 -178.6296 566.0
-143.40865 -179.2608 568.0
-139.67053 -179.5764 569.0
-135.67996 -179.5764 569.0
-131.68938 -179.5764 569.0
-128.37206 -180.5232 572.0
-124.57784 -180.8388 573.0
-121.19041 -181.7856 576.0
-117.760895 -182.7324 579.0
-104.49867 -188.0976 596.0
-97.26794 -190.3068 603.0
-93.501755 -191.2536 606.0
-89.840805 -192.516 610.0
-85.98347 -193.4628 613.0
-82.08406 -194.4096 616.0
-205.98161 -172.27551 534.0
-201.47905 -171.6303 532.0
-196.63284 -170.66245 529.0
-192.92276 -170.66245 529.0
-189.21272 -170.66245 529.0
-185.50267 -170.66245 529.0
-181.79263 -170.66245 529.0
-178.4192 -170.98506 530.0
-175.69101 -171.95291 533.0
-172.59814 -172.59813 535.0
-169.7928 -173.56596 538.0
-166.9454 -174.53381 541.0
-164.05591 -175.50165 544.0
-164.06992 -179.69562 557.0
-160.73859 -180.34085 559.0
-157.65974 -181.3087 562.0
-154.26529 -181.95392 564.0
-150.57628 -182.27654 565.0
-146.61374 -182.27654 565.0
-142.90369 -182.59914 566.0
-139.17961 -182.92175 567.0
-135.4415 -183.24437 568.0
-131.68938 -183.56699 569.0
-128.37206 -184.53482 572.0
-124.57784 -184.85744 573.0
-121.19041 -185.82527 576.0
-117.96427 -187.11572 580.0
-114.87841 -188.7288 585.0
-111.34367 -189.69664 588.0
-107.94923 -190.98709 592.0
-104.32333 -191.95493 595.0
-100.487045 -192.60016 597.0
-96.94532 -193.89061 601.0
-93.19317 -194.85844 604.0
-89.54624 -196.14891 608.0
-85.56267 -196.79413 610.0
-81.81756 -198.0846 614.0
-78.016335 -199.37503 618.0
-210.11948 -176.35027 535.0
-205.59587 -175.69101 533.0
-200.7216 -174.70213 530.0
-196.63284 -174.37251 529.0
-192.92276 -174.37251 529.0
-189.21272 -174.37251 529.0
-185.15201 -174.04288 528.0
-181.79263 -174.37251 529.0
-178.4192 -174.70213 530.0
-175.69101 -175.69101 533.0
-172.92075 -176.67989 536.0
-170.42401 -177.99838 540.0
-167.56256 -178.98727 543.0
-164.35747 -179.64653 545.0
-163.77536 -183.27243 556.0
-160.45105 -183.93167 558.0
-157.09868 -184.59093 560.0
-153.71825 -185.25018 562.0
-149.77676 -185.25018 562.0
-145.83525 -185.25018 562.0
-142.6512 -186.23906 565.0
-138.68867 -186.23906 565.0
-134.9646 -186.56868 566.0
-131.22649 -186.89832 567.0
-127.923195 -187.88719 570.0
-124.36043 -188.54645 572.0
-120.76961 -189.20569 574.0
-117.760895 -190.85384 579.0
-114.68204 -192.50197 584.0
-110.96495 -193.16122 586.0
-107.40218 -194.1501 589.0
-103.97267 -195.46861 593.0
-100.318726 -196.45749 596.0
-96.6227 -197.44637 599.0
-92.88458 -198.43524 602.0
-89.25168 -199.75375 606.0
-85.4224 -200.74263 609.0
-252.76054 -178.41919 530.0
-248.10368 -177.74591 528.0
-241.15347 -178.08255 529.0
-236.54572 -177.40927 527.0
-240.36098 -183.13216 544.0
-223.03102 -181.44896 539.0
-218.4373 -180.77567 537.0
-214.27136 -180.43904 536.0
-209.72672 -179.76575 534.0
-205.59587 -179.42911 533.0
-200.7216 -178.41919 530.0
-196.63284 -178.08255 529.0
-192.55807 -177.74591 528.0
-188.85506 -177.74591 528.0
-185.15201 -177.74591 528.0
-181.79263 -178.08255 529.0
-178.4192 -178.41919 530.0
-175.36139 -179.09247 532.0
-172.92075 -180.43904 536.0
-170.42401 -181.78558 540.0
-168.17973 -183.46878 545.0
-166.16692 -185.48863 551.0
-163.18623 -186.49855 554.0
-159.87595 -187.17183 556.0
-156.53761 -187.84511 558.0
-152.89769 -188.18175 559.0
-149.24374 -188.51839 560.0
-145.57576 -188.85504 561.0
-142.14624 -189.5283 563.0
-138.4432 -189.86496 564.0
-134.72614 -190.20158 565.0
-131.22649 -190.87486 567.0
-127.47434 -191.2115 568.0
-124.14301 -192.22144 571.0
-120.559204 -192.8947 573.0
-117.760895 -194.91455 579.0
-114.28929 -195.92447 582.0
-110.7756 -196.93439 585.0
-107.21984 -197.9443 588.0
-103.79734 -199.29086 592.0
-99.98209 -199.96416 594.0
-96.6227 -201.64735 599.0
-92.730286 -202.32062 601.0
-88.957115 -203.33055 604.0
-256.51968 -174.57591 508.0
-253.5741 -180.07436 524.0
-250.376 -180.41801 525.0
-246.69402 -180.41801 525.0
-243.01201 -180.41801 525.0
-239.78587 -180.76166 526.0
-236.54572 -181.10532 527.0
-239.03545 -185.91647 541.0
-234.80641 -185.57281 540.0
-230.16359 -184.88551 538.0
-226.8112 -185.22916 539.0
-222.61723 -184.88551 538.0
-217.62375 -183.85454 535.0
-213.47183 -183.5109 534.0
-209.72672 -183.5109 534.0
-204.8244 -182.47993 531.0
-200.7216 -182.13629 530.0
-196.63284 -181.79262 529.0
-192.55807 -181.44897 528.0
-188.49736 -181.10532 527.0
-185.50267 -181.79262 529.0
-181.79263 -181.79262 529.0
-178.75584 -182.47993 531.0
-175.69101 -183.16724 533.0
-173.56598 -184.88551 538.0
-170.73961 -185.91647 541.0
-168.79692 -187.9784 547.0
-165.86534 -189.00934 550.0
-162.89168 -190.04031 553.0
-159.30086 -190.38396 554.0
-155.41547 -190.38396 554.0
-151.8036 -190.72762 555.0
-148.44423 -191.41492 557.0
-144.79727 -191.75858 558.0
-141.64128 -192.78954 561.0
-137.95227 -193.1332 562.0
-134.24924 -193.47684 563.0
-130.76361 -194.16414 565.0
-127.249916 -194.85144 567.0
-124.14301 -196.22607 571.0
-120.559204 -196.91338 573.0
-117.5575 -198.63164 578.0
-114.092926 -199.6626 581.0
-110.7756 -201.03722 585.0
-107.21984 -202.06818 588.0
-103.44667 -202.75548 590.0
-99.81377 -203.78644 593.0
-256.44254 -180.59334 515.0
-255.77628 -182.69734 521.0
-252.60625 -183.04802 522.0
-248.46838 -182.69734 521.0
-244.81444 -182.69734 521.0
-241.16048 -182.69734 521.0
-238.41827 -183.39867 523.0
-236.09688 -184.45067 526.0
-237.2681 -188.30801 537.0
-233.93675 -188.65868 538.0
-229.73576 -188.30801 537.0
-225.54881 -187.95734 536.0
-220.9621 -187.25601 534.0
-217.21698 -187.25601 534.0
-213.07208 -186.90533 533.0
-208.94124 -186.55467 532.0
-204.43867 -185.85335 530.0
-200.3429 -185.50267 529.0
-196.63284 -185.50267 529.0
-192.55807 -185.15201 528.0
-188.85506 -185.15201 528.0
-185.50267 -185.50267 529.0
-182.13628 -185.85335 530.0
-178.75584 -186.20401 531.0
-176.02063 -187.25601 534.0
-174.21121 -189.36002 540.0
-171.3708 -190.41202 543.0
-168.79692 -191.81467 547.0
-165.56378 -192.516 549.0
-162.00801 -192.86667 550.0
-158.4382 -193.21735 551.0
-155.41547 -194.26935 554.0
-151.53009 -194.26935 554.0
-147.91121 -194.62001 555.0
-144.27829 -194.97067 556.0
-140.88383 -195.67201 558.0
-137.46133 -196.37334 560.0
-134.01079 -197.07468 562.0
-130.76361 -198.12668 565.0
-127.0255 -198.47734 566.0
-124.14301 -200.23067 571.0
-120.559204 -200.932 573.0
-117.35411 -202.33467 577.0
-274.04602 -186.35129 521.0
-269.87308 -185.9936 520.0
-266.22614 -185.9936 520.0
-262.07425 -185.63593 519.0
-258.43433 -185.63593 519.0
-254.7944 -185.63593 519.0
-251.1545 -185.63593 519.0
-247.03767 -185.27824 518.0
-243.40474 -185.27824 518.0
-239.30896 -184.92056 517.0
-235.68307 -184.92056 517.0
-240.13654 -191.3588 535.0
-236.38441 -191.3588 535.0
-233.0671 -191.71648 536.0
-228.45232 -191.00113 534.0
-224.2864 -190.64345 533.0
-220.5483 -190.64345 533.0
-216.81021 -190.64345 533.0
-212.67232 -190.28577 532.0
-208.15575 -189.5704 530.0
-204.43867 -189.5704 530.0
-200.3429 -189.21274 529.0
-196.63284 -189.21274 529.0
-192.92276 -189.21274 529.0
-189.21272 -189.21274 529.0
-185.50267 -189.21274 529.0
-182.13628 -189.5704 530.0
-179.42914 -190.64345 533.0
-176.6799 -191.71648 536.0
-174.21121 -193.1472 540.0
-171.6864 -194.57793 544.0
-168.48834 -195.29329 546.0
-164.96063 -195.65097 547.0
-161.41887 -196.00865 548.0
-157.86311 -196.36633 549.0
-154.57387 -197.08168 551.0
-150.98305 -197.43936 552.0
-147.64471 -198.15472 554.0
-143.7593 -198.15472 554.0
-140.37889 -198.87009 556.0
-136.72495 -199.22777 557.0
-133.53387 -200.3008 560.0
-130.53217 -201.73154 564.0
-127.0255 -202.44688 566.0
-123.925606 -203.8776 570.0
-120.76961 -205.30833 574.0
-279.1938 -188.54646 517.0
-275.5679 -188.54646 517.0
-272.99402 -189.27585 519.0
-268.8351 -188.91115 518.0
-265.2022 -188.91115 518.0
-261.56927 -188.91115 518.0
-257.43845 -188.54646 517.0
-251.84882 -187.08768 513.0
-248.25096 -187.08768 513.0
-244.17622 -186.72299 512.0
-240.1155 -186.35829 511.0
-236.99457 -186.72299 512.0
-234.31548 -187.45238 514.0
-240.13654 -195.11093 535.0
-234.61705 -193.65216 531.0
-230.89296 -193.65216 531.0
-227.16888 -193.65216 531.0
-223.44481 -193.65216 531.0
-219.30695 -193.28748 530.0
-215.58987 -193.28748 530.0
-211.47304 -192.92278 529.0
-207.76299 -192.92278 529.0
-204.05295 -192.92278 529.0
-200.3429 -192.92278 529.0
-196.26114 -192.55809 528.0
-192.92276 -192.92278 529.0
-189.21272 -192.92278 529.0
-185.50267 -192.92278 529.0
-182.47993 -193.65216 531.0
-179.76578 -194.74625 534.0
-177.00952 -195.84032 537.0
-174.21121 -196.9344 540.0
-171.3708 -198.02849 543.0
-167.87115 -198.39317 544.0
-164.35747 -198.75787 545.0
-160.82976 -199.12256 546.0
-157.28802 -199.48726 547.0
-154.0128 -200.21664 549.0
-150.436 -200.58133 550.0
-146.84518 -200.94603 551.0
-143.4998 -201.67542 553.0
-140.1264 -202.4048 555.0
-136.72495 -203.13419 557.0
-133.53387 -204.22827 560.0
-130.53217 -205.68704 564.0
-127.0255 -206.41643 566.0
-123.70818 -207.51051 569.0
-279.53745 -189.94211 511.0
-277.5737 -191.05722 514.0
-273.96884 -191.05722 514.0
-270.364 -191.05722 514.0
-266.75916 -191.05722 514.0
-260.08246 -188.827 508.0
-256.0147 -188.45528 507.0
-253.45485 -189.1987 509.0
-250.376 -189.5704 510.0
-246.31529 -189.1987 509.0
-242.74551 -189.1987 509.0
-239.64561 -189.5704 510.0
-236.53168 -189.94211 511.0
-233.8596 -190.68552 513.0
-230.71063 -191.05722 514.0
-234.1752 -197.00453 530.0
-230.45815 -197.00453 530.0
-226.74107 -197.00453 530.0
-222.60321 -196.63283 529.0
-218.89316 -196.63283 529.0
-215.18312 -196.63283 529.0
-211.07327 -196.26112 528.0
-207.37025 -196.26112 528.0
-203.6672 -196.26112 528.0
-200.3429 -196.63283 529.0
-196.26114 -196.26112 528.0
-192.55807 -196.26112 528.0
-189.21272 -196.63283 529.0
-185.85333 -197.00453 530.0
-182.47993 -197.37624 531.0
-179.76578 -198.49135 534.0
-177.00952 -199.60648 537.0
-174.21121 -200.7216 540.0
-170.73961 -201.0933 541.0
-167.56256 -201.83672 543.0
-164.05591 -202.20842 544.0
-160.5352 -202.58012 545.0
-157.00047 -202.95183 546.0
-153.45174 -203.32355 547.0
-149.88896 -203.69525 548.0
-146.57867 -204.43867 550.0
-143.24033 -205.18208 552.0
-139.87392 -205.92549 554.0
-136.72495 -207.04062 557.0
-133.29543 -207.78403 559.0
-278.99042 -193.1472 510.0
-275.95364 -193.52592 511.0
-272.3698 -193.52592 511.0
-268.786 -193.52592 511.0
-263.12625 -192.01103 507.0
-259.05853 -191.63232 506.0
-255.50977 -191.63232 506.0
-251.96101 -191.63232 506.0
-248.41228 -191.63232 506.0
-245.34746 -192.01103 507.0
-242.2686 -192.38976 508.0
-238.70581 -192.38976 508.0
-235.60593 -192.76846 509.0
-233.40375 -193.90463 512.0
-230.71063 -194.66206 514.0
-233.73338 -200.34286 529.0
-230.0233 -200.34286 529.0
-226.31325 -200.34286 529.0
-222.1824 -199.96416 528.0
-218.06558 -199.58543 527.0
-214.36957 -199.58543 527.0
-210.67352 -199.58543 527.0
-206.9775 -199.58543 527.0
-203.28148 -199.58543 527.0
-199.96416 -199.96416 528.0
-196.26114 -199.96416 528.0
-192.55807 -199.96416 528.0
-189.21272 -200.34286 529.0
-185.85333 -200.7216 530.0
-182.82358 -201.47903 532.0
-179.76578 -202.23647 534.0
-177.00952 -203.37263 537.0
-174.21121 -204.5088 540.0
-170.42401 -204.5088 540.0
-167.25398 -205.26624 542.0
-163.75433 -205.64496 543.0
-159.94608 -205.64496 543.0
-156.71294 -206.4024 545.0
-153.1712 -206.78111 546.0
-149.88896 -207.53856 548.0
-146.84518 -208.67471 551.0
-143.4998 -209.43216 553.0
-140.1264 -210.1896 555.0
-136.9704 -211.32576 558.0
-275.7082 -194.40959 504.0
-273.79352 -195.56679 507.0
-268.63873 -194.40959 504.0
-265.104 -194.40959 504.0
-261.5693 -194.40959 504.0
-258.03458 -194.40959 504.0
-254.49983 -194.40959 504.0
-250.96512 -194.40959 504.0
-247.92134 -194.79533 505.0
-244.86354 -195.18106 506.0
-241.7917 -195.56679 507.0
-238.23592 -195.56679 507.0
-234.21729 -195.18106 506.0
-230.21268 -194.79533 505.0
-229.36407 -197.10973 511.0
-226.66394 -197.88118 513.0
-228.28401 -202.51 525.0
-225.02982 -202.89574 526.0
-221.3408 -202.89574 526.0
-217.65181 -202.89574 526.0
-213.96278 -202.89574 526.0
-210.67352 -203.28146 527.0
-206.9775 -203.28146 527.0
-203.6672 -203.66719 528.0
-200.3429 -204.05293 529.0
-196.63284 -204.05293 529.0
-192.92276 -204.05293 529.0
-189.5704 -204.43866 530.0
-186.20401 -204.82439 531.0
-183.16724 -205.59586 533.0
-179.76578 -205.98158 534.0
-176.6799 -206.75305 536.0
-173.56598 -207.52454 538.0
-170.42401 -208.29599 540.0
-166.63681 -208.29599 540.0
-163.15118 -208.68173 541.0
-159.65152 -209.06746 542.0
-156.42538 -209.83893 544.0
-153.1712 -210.61038 546.0
-149.88896 -211.38185 548.0
-147.1117 -212.92479 552.0
-143.7593 -213.69626 554.0
-273.52002 -196.37332 500.0
-270.01334 -196.37332 500.0
-267.03967 -196.76607 501.0
-264.052 -197.15881 502.0
-260.5313 -197.15881 502.0
-257.01062 -197.15881 502.0
-253.99487 -197.55156 503.0
-250.96512 -197.9443 504.0
-247.4304 -197.9443 504.0
-243.41176 -197.55156 503.0
-239.40717 -197.15881 502.0
-235.88646 -197.15881 502.0
-232.82866 -197.55156 503.0
-229.7568 -197.9443 504.0
-227.11981 -198.7298 506.0
-231.08234 -205.4065 523.0
-227.41434 -205.4065 523.0
-224.1742 -205.79924 524.0
-220.92001 -206.19199 525.0
-217.238 -206.19199 525.0
-213.96278 -206.58475 526.0
-210.67352 -206.97748 527.0
-207.37025 -207.37022 528.0
-204.05295 -207.76297 529.0
-200.3429 -207.76297 529.0
-197.00455 -208.15572 530.0
-193.65216 -208.54848 531.0
-190.28577 -208.94121 532.0
-186.90533 -209.33397 533.0
-183.5109 -209.7267 534.0
-179.76578 -209.7267 534.0
-176.6799 -210.51219 536.0
-173.24336 -210.90495 537.0
-170.10841 -211.69044 539.0
-166.63681 -212.08319 540.0
-162.84961 -212.08319 540.0
-159.65152 -212.86868 542.0
-156.42538 -213.65417 544.0
-153.45174 -214.83241 547.0
-150.436 -216.01067 550.0
-147.1117 -216.79614 552.0
-271.33185 -198.28096 496.0
-268.9333 -199.08049 498.0
-265.97366 -199.48026 499.0
-262.474 -199.48026 499.0
-260.01233 -200.27977 501.0
-257.01062 -200.67953 502.0
-252.98497 -200.27977 501.0
-248.47539 -199.48026 499.0
-244.97574 -199.48026 499.0
-241.47609 -199.48026 499.0
-237.97646 -199.48026 499.0
-234.47676 -199.48026 499.0
-231.90288 -200.27977 501.0
-228.84508 -200.67953 502.0
-226.22209 -201.47905 504.0
-230.19865 -208.27496 521.0
-226.97952 -208.67473 522.0
-224.1742 -209.47424 524.0
-220.92001 -209.87401 525.0
-217.65181 -210.27376 526.0
-214.36957 -210.67352 527.0
-211.07327 -211.0733 528.0
-207.76299 -211.47305 529.0
-204.05295 -211.47305 529.0
-200.7216 -211.87282 530.0
-197.74796 -212.67233 532.0
-194.38155 -213.0721 533.0
-190.64345 -213.0721 533.0
-186.90533 -213.0721 533.0
-183.5109 -213.47185 534.0
-179.76578 -213.47185 534.0
-176.35027 -213.87161 535.0
-173.24336 -214.67113 537.0
-170.10841 -215.47066 539.0
-166.63681 -215.8704 540.0
-163.15118 -216.27017 541.0
-159.94608 -217.0697 543.0
-156.71294 -217.8692 545.0
-151.53009 -221.46706 554.0
-270.2378 -200.94603 494.0
-267.85324 -201.75958 496.0
-264.90762 -202.16635 497.0
-260.896 -201.75958 496.0
-257.41742 -201.75958 496.0
-253.93878 -201.75958 496.0
-250.46016 -201.75958 496.0
-246.98155 -201.75958 496.0
-244.4848 -202.57314 498.0
-240.50826 -202.16635 497.0
-237.02263 -202.16635 497.0
-234.00688 -202.57314 498.0
-230.97713 -202.97989 499.0
-227.93333 -203.38667 500.0
-225.32439 -204.20023 502.0
-230.19865 -211.92892 521.0
-227.41434 -212.74246 523.0
-224.602 -213.55602 525.0
-221.76161 -214.36955 527.0
-218.06558 -214.36955 527.0
-215.18312 -215.18309 529.0
-211.8728 -215.58989 530.0
-208.54848 -215.99663 531.0
-204.8244 -215.99663 531.0
-201.85776 -216.8102 533.0
-198.11967 -216.8102 533.0
-194.74623 -217.21696 534.0
-191.00111 -217.21696 534.0
-187.25601 -217.21696 534.0
-183.5109 -217.21696 534.0
-179.76578 -217.21696 534.0
-176.6799 -218.03052 536.0
-173.24336 -218.4373 537.0
-170.10841 -219.25082 539.0
-166.63681 -219.6576 540.0
-163.75433 -220.87793 543.0
-160.5352 -221.69148 545.0
-268.59665 -203.16927 491.0
-265.1531 -203.16927 491.0
-261.70953 -203.16927 491.0
-258.26602 -203.16927 491.0
-255.86043 -203.99684 493.0
-252.91486 -204.41061 494.0
-249.45024 -204.41061 494.0
-246.98155 -205.23819 496.0
-243.50294 -205.23819 496.0
-240.02434 -205.23819 496.0
-236.54572 -205.23819 496.0
-233.53699 -205.65198 497.0
-230.51425 -206.06577 498.0
-227.47748 -206.47955 499.0
-224.42668 -206.89334 500.0
-230.64049 -215.99663 522.0
-227.41434 -216.41043 523.0
-224.602 -217.238 525.0
-221.3408 -217.6518 526.0
-218.47937 -218.47937 528.0
-215.18312 -218.89316 529.0
-211.8728 -219.30695 530.0
-208.94124 -220.13452 532.0
-205.59587 -220.54831 533.0
-202.2365 -220.9621 534.0
-198.49138 -220.9621 534.0
-194.74623 -220.9621 534.0
-191.00111 -220.9621 534.0
-187.25601 -220.9621 534.0
-183.5109 -220.9621 534.0
-180.1024 -221.37585 535.0
-177.00952 -222.20343 537.0
-173.88858 -223.031 539.0
-170.42401 -223.4448 540.0
-167.56256 -224.68617 543.0

