ply
format ascii 1.0
comment made by @arthurmuchir
element vertex 917
property float x
property float y
property float z
end_header
-80.35177 -109.955025 603.0
-76.75394 -110.86676 608.0
-88.66256 -113.99473 602.0
-84.30027 -113.80538 601.0
-80.21851 -113.99473 602.0
-76.24897 -114.37345 604.0
-72.25135 -114.752174 606.0
-92.2674 -117.43126 598.0
-88.07344 -117.43126 598.0
-83.87947 -117.43126 598.0
-79.952 -117.82401 600.0
-75.99649 -118.21675 602.0
-72.0129 -118.609505 604.0
-96.13879 -121.21846 596.0
-91.95882 -121.21846 596.0
-87.778885 -121.21846 596.0
-83.739204 -121.421844 597.0
-79.818756 -121.82861 599.0
-75.870255 -122.23539 601.0
-104.148 -124.9776 594.0
-99.81377 -124.7672 593.0
-95.65487 -124.7672 593.0
-91.65024 -124.9776 594.0
-87.778885 -125.3984 596.0
-83.739204 -125.6088 597.0
-79.818756 -126.0296 599.0
-108.13157 -128.9261 593.0
-103.79734 -128.7087 592.0
-99.47713 -128.49127 591.0
-95.49356 -128.7087 592.0
-91.49594 -128.9261 593.0
-87.778885 -129.57834 596.0
-83.739204 -129.79575 597.0
-111.533035 -132.18729 589.0
-107.58453 -132.41173 590.0
-103.44667 -132.41173 590.0
-99.30881 -132.41173 590.0
-95.49356 -132.86058 592.0
-91.49594 -133.085 593.0
-87.778885 -133.75829 596.0
-115.46754 -136.0867 588.0
-111.34367 -136.0867 588.0
-107.21984 -136.0867 588.0
-103.27134 -136.31815 589.0
-99.30881 -136.54959 590.0
-95.49356 -137.01247 592.0
-83.15009 -144.41855 624.0
-79.15249 -145.11287 627.0
-74.99357 -145.57576 629.0
-119.59137 -140.21057 588.0
-115.27116 -139.97212 587.0
-110.7756 -139.49521 585.0
-107.21984 -140.21057 588.0
-103.27134 -140.44902 589.0
-99.30881 -140.68748 590.0
-95.33225 -140.92593 591.0
-87.105606 -148.07953 621.0
-82.88358 -148.318 622.0
-78.64753 -148.55644 623.0
-74.51666 -149.03334 625.0
-151.9088 -139.91602 570.0
-146.61374 -138.68867 565.0
-141.89377 -137.95227 562.0
-137.46133 -137.46135 560.0
-133.05698 -136.97041 558.0
-128.9121 -136.72495 557.0
-124.332375 -135.98854 554.0
-121.53405 -137.21587 559.0
-123.08401 -143.598 585.0
-118.777824 -143.35254 584.0
-114.68204 -143.35254 584.0
-110.58624 -143.35254 584.0
-107.21984 -144.33441 588.0
-103.27134 -144.57986 589.0
-99.30881 -144.82535 590.0
-91.019035 -151.69841 618.0
-86.82507 -151.94388 619.0
-82.483826 -151.94388 619.0
-78.268814 -152.18935 620.0
-74.278206 -152.92574 623.0
-160.18454 -144.16608 571.0
-155.9064 -143.9136 570.0
-151.1093 -143.15616 567.0
-146.09474 -142.14624 563.0
-141.38881 -141.3888 560.0
-137.21587 -141.13634 559.0
-129.95708 -137.6016 545.0
-125.903366 -137.34914 544.0
-124.332375 -139.87393 554.0
-121.09923 -140.63136 557.0
-118.37105 -146.94336 582.0
-114.485664 -147.19585 583.0
-110.58624 -147.44833 584.0
-107.21984 -148.45825 588.0
-103.44667 -148.9632 590.0
-94.42751 -154.51776 612.0
-90.42992 -155.02274 614.0
-86.12373 -155.02274 614.0
-82.35057 -156.03265 618.0
-78.268814 -156.5376 620.0
-172.80154 -148.68968 573.0
-167.8992 -147.9112 570.0
-163.61406 -147.6517 569.0
-159.34294 -147.39221 568.0
-155.35936 -147.39221 568.0
-150.57628 -146.61372 565.0
-145.83525 -145.83527 562.0
-140.88383 -144.79729 558.0
-136.9704 -144.79729 558.0
-129.48016 -140.90488 543.0
-125.671936 -140.90488 543.0
-122.31253 -141.42387 545.0
-118.37105 -151.02512 582.0
-114.68204 -151.54411 584.0
-110.7756 -151.8036 585.0
-107.21984 -152.58208 588.0
-105.726006 -156.47449 603.0
-102.00192 -157.25296 606.0
-98.07447 -157.77196 608.0
-93.96464 -158.03145 609.0
-89.840805 -158.29092 610.0
-85.98347 -159.06941 613.0
-81.950806 -159.5884 615.0
-78.14257 -160.62637 619.0
-178.9452 -151.10928 567.0
-175.89441 -151.9088 570.0
-171.8968 -151.9088 570.0
-167.60463 -151.64229 569.0
-163.32652 -151.3758 568.0
-158.50134 -150.57628 565.0
-150.436 -146.57867 550.0
-146.84518 -146.84518 551.0
-143.24033 -147.11168 552.0
-139.87392 -147.6447 554.0
-128.87001 -139.916 525.0
-127.81099 -142.84758 536.0
-124.977615 -143.9136 540.0
-121.86368 -144.71312 543.0
-119.57734 -146.57867 550.0
-121.8216 -154.30736 579.0
-118.37105 -155.10689 582.0
-114.87841 -155.9064 585.0
-110.96495 -156.17291 586.0
-109.408005 -159.904 600.0
-105.55067 -160.43701 602.0
-101.66529 -160.97002 604.0
-97.751854 -161.50304 606.0
-93.65605 -161.76955 607.0
-89.69352 -162.30255 609.0
-85.8432 -163.10208 612.0
-81.81756 -163.6351 614.0
-176.4695 -149.61543 547.0
-172.63321 -149.61543 547.0
-168.79692 -149.61543 547.0
-164.96063 -149.61543 547.0
-161.12431 -149.61543 547.0
-157.28802 -149.61543 547.0
-154.0128 -150.16248 549.0
-150.16249 -150.16248 549.0
-146.31218 -150.16248 549.0
-142.72133 -150.436 550.0
-139.11649 -150.70952 551.0
-129.85187 -144.69206 529.0
-126.14182 -144.69206 529.0
-123.58897 -146.05968 534.0
-118.777824 -159.73567 584.0
-115.07479 -160.28271 586.0
-112.85855 -163.01791 596.0
-108.86096 -163.29143 597.0
-104.849335 -163.56496 598.0
-101.160324 -164.38551 601.0
-97.26794 -164.93256 603.0
-93.501755 -165.75311 606.0
-89.69352 -166.57367 609.0
-85.8432 -167.39424 612.0
-183.46881 -152.89066 545.0
-179.97617 -153.17119 546.0
-175.82428 -152.89066 545.0
-171.6864 -152.61012 544.0
-168.17973 -152.89066 545.0
-164.35747 -152.89066 545.0
-160.5352 -152.89066 545.0
-157.00047 -153.17119 546.0
-153.1712 -153.17119 546.0
-149.61545 -153.45174 547.0
-145.77916 -153.45174 547.0
-142.20235 -153.73225 548.0
-138.61151 -154.01279 549.0
-128.87001 -147.27998 525.0
-125.188 -147.27998 525.0
-122.43177 -148.40213 529.0
-116.4494 -166.35626 593.0
-112.290474 -166.35626 593.0
-108.49627 -166.91733 595.0
-104.674 -167.4784 597.0
-100.992004 -168.31999 600.0
-97.10662 -168.88106 602.0
-93.19317 -169.44212 604.0
-89.69352 -170.84479 609.0
-186.60376 -156.13782 543.0
-182.79553 -156.13782 543.0
-178.32803 -155.56273 541.0
-174.53381 -155.56273 541.0
-171.0552 -155.85028 542.0
-167.56256 -156.13782 543.0
-163.75433 -156.13782 543.0
-160.24063 -156.42537 544.0
-156.71294 -156.71292 545.0
-153.1712 -157.00047 546.0
-149.34193 -157.00047 546.0
-145.51265 -157.00047 546.0
-141.94286 -157.28801 547.0
-138.35904 -157.57556 548.0
-127.88814 -149.8118 521.0
-124.23419 -149.8118 521.0
-121.968895 -151.53708 527.0
-116.25302 -170.22762 592.0
-112.290474 -170.51517 593.0
-108.13157 -170.51517 593.0
-104.49867 -171.37779 596.0
-100.82369 -172.24043 599.0
-96.94532 -172.81552 601.0
-190.412 -159.94609 543.0
-185.91647 -159.35696 541.0
-181.78561 -159.06241 540.0
-177.99841 -159.06241 540.0
-174.21121 -159.06241 540.0
-170.42401 -159.06241 540.0
-166.9454 -159.35696 541.0
-163.75433 -159.94609 543.0
-159.94608 -159.94609 543.0
-156.71294 -160.53522 545.0
-153.1712 -160.82976 546.0
-149.34193 -160.82976 546.0
-145.77916 -161.12433 547.0
-141.94286 -161.12433 547.0
-138.35904 -161.4189 548.0
-127.15174 -152.58209 518.0
-123.75729 -152.87665 519.0
-115.6639 -173.49585 589.0
-111.91175 -174.08498 591.0
-107.94923 -174.37953 592.0
-104.32333 -175.26321 595.0
-100.655365 -176.1469 598.0
-194.93561 -164.35747 545.0
-189.36 -162.84961 540.0
-185.5728 -162.84961 540.0
-180.7757 -161.94489 537.0
-177.00952 -161.94489 537.0
-173.88858 -162.54803 539.0
-170.42401 -162.84961 540.0
-166.63681 -162.84961 540.0
-163.45276 -163.45276 542.0
-160.24063 -164.05591 544.0
-156.71294 -164.35747 545.0
-153.1712 -164.65904 546.0
-149.61545 -164.96062 547.0
-146.57867 -165.86534 550.0
-142.46184 -165.56377 549.0
-130.78464 -156.21498 518.0
-126.90627 -155.91342 517.0
-123.28038 -155.91342 517.0
-119.59137 -177.32513 588.0
-115.6639 -177.62671 589.0
-111.7224 -177.92827 590.0
-107.94923 -178.53142 592.0
-103.79734 -178.53142 592.0
-199.12256 -168.48831 546.0
-193.1472 -166.6368 540.0
-188.30801 -165.71104 537.0
-183.85454 -165.09387 535.0
-179.76578 -164.78528 534.0
-176.35027 -165.09387 535.0
-172.92075 -165.40247 536.0
-170.10841 -166.32822 539.0
-166.63681 -166.6368 540.0
-163.15118 -166.94539 541.0
-160.24063 -167.87115 544.0
-156.71294 -168.17975 545.0
-154.0128 -169.41408 549.0
-150.16249 -169.41408 549.0
-150.57628 -174.35147 565.0
-147.13272 -174.96864 567.0
-143.66112 -175.58582 569.0
-140.6524 -176.82016 573.0
-136.63377 -176.82016 573.0
-133.07802 -177.43735 575.0
-129.49419 -178.0545 577.0
-126.09974 -178.98027 580.0
-122.452805 -179.59744 582.0
-118.9812 -180.5232 585.0
-115.46754 -181.44896 588.0
-111.7224 -182.06615 590.0
-108.13157 -182.9919 593.0
-195.47563 -169.1616 536.0
-191.00111 -168.5304 534.0
-187.25601 -168.5304 534.0
-183.16724 -168.2148 533.0
-179.42914 -168.2148 533.0
-176.02063 -168.5304 534.0
-172.59814 -168.846 535.0
-169.4772 -169.4772 537.0
-166.63681 -170.424 540.0
-163.15118 -170.7396 541.0
-160.24063 -171.6864 544.0
-157.00047 -172.3176 546.0
-154.0128 -173.2644 549.0
-154.26529 -177.9984 564.0
-150.57628 -178.314 565.0
-147.39221 -179.2608 568.0
-143.9136 -179.892 570.0
-140.40694 -180.5232 572.0
-136.39531 -180.5232 572.0
-132.84657 -181.1544 574.0
-129.26976 -181.7856 576.0
-125.88232 -182.7324 579.0
-122.2424 -183.3636 581.0
-118.777824 -184.3104 584.0
-115.27116 -185.2572 587.0
-198.86307 -172.59813 535.0
-194.74623 -172.27551 534.0
-190.64345 -171.95291 533.0
-186.90533 -171.95291 533.0
-182.82358 -171.6303 532.0
-179.0925 -171.6303 532.0
-176.02063 -172.27551 534.0
-172.59814 -172.59813 535.0
-169.4772 -173.24335 537.0
-166.63681 -174.2112 540.0
-163.15118 -174.53381 541.0
-160.5352 -175.82426 545.0
-157.28802 -176.4695 547.0
-157.94028 -181.6313 563.0
-154.26529 -181.95392 564.0
-150.57628 -182.27654 565.0
-147.13272 -182.92175 567.0
-143.66112 -183.56699 569.0
-140.16147 -184.21222 571.0
-136.39531 -184.53482 572.0
-132.61513 -184.85744 573.0
-129.26976 -185.82527 576.0
-125.66491 -186.4705 578.0
-122.032005 -187.11572 580.0
-118.37105 -187.76096 582.0
-115.07479 -189.0514 586.0
-81.28454 -196.79413 610.0
-204.1301 -177.66876 539.0
-198.49138 -176.02063 534.0
-194.38155 -175.69101 533.0
-190.28577 -175.36137 532.0
-185.85333 -174.70213 530.0
-182.13628 -174.70213 530.0
-178.75584 -175.03175 531.0
-175.36139 -175.36137 532.0
-172.27551 -176.02063 534.0
-169.4772 -177.00952 537.0
-166.63681 -177.99838 540.0
-163.15118 -178.32802 541.0
-160.82976 -179.97615 546.0
-157.57558 -180.6354 548.0
-157.37921 -184.92055 561.0
-154.26529 -185.90944 564.0
-150.57628 -186.23906 565.0
-146.87323 -186.56868 566.0
-143.40865 -187.22794 568.0
-139.67053 -187.55757 569.0
-136.15686 -188.21683 571.0
-132.61513 -188.87607 573.0
-129.04533 -189.53532 575.0
-125.23008 -189.86496 576.0
-121.611206 -190.52422 578.0
-117.5575 -190.52422 578.0
-81.15129 -200.74263 609.0
-77.00641 -201.07227 610.0
-213.26144 -182.7955 543.0
-208.296 -181.78558 540.0
-202.2365 -179.76575 534.0
-198.11967 -179.42911 533.0
-193.65216 -178.75583 531.0
-189.5704 -178.41919 530.0
-185.50267 -178.08255 529.0
-181.79263 -178.08255 529.0
-178.4192 -178.41919 530.0
-175.36139 -179.09247 532.0
-172.27551 -179.76575 534.0
-169.4772 -180.77567 537.0
-166.63681 -181.78558 540.0
-163.15118 -182.12224 541.0
-160.24063 -183.13216 544.0
-160.1635 -187.50847 557.0
-157.37921 -188.85504 561.0
-153.71825 -189.19167 562.0
-150.57628 -190.20158 565.0
-146.61374 -190.20158 565.0
-143.15616 -190.87486 567.0
-139.42508 -191.2115 568.0
-135.67996 -191.54816 569.0
-131.9208 -191.88478 570.0
-128.37206 -192.55807 572.0
-124.57784 -192.8947 573.0
-121.19041 -193.90463 576.0
-117.15073 -193.90463 576.0
-110.7756 -196.93439 585.0
-106.49045 -196.59775 584.0
-103.27134 -198.28096 589.0
-99.47713 -198.95422 591.0
-95.49356 -199.29086 592.0
-91.80453 -200.30078 595.0
-87.92616 -200.97408 597.0
-84.16 -201.984 600.0
-80.48502 -203.33055 604.0
-76.50146 -204.00381 606.0
-72.60904 -205.01375 609.0
-244.17622 -186.94742 544.0
-241.24466 -187.63474 546.0
-216.27016 -185.91647 541.0
-212.0832 -185.57281 540.0
-207.91028 -185.22916 539.0
-202.2365 -183.5109 534.0
-198.11967 -183.16724 533.0
-193.28748 -182.13629 530.0
-189.5704 -182.13629 530.0
-185.50267 -181.79262 529.0
-181.79263 -181.79262 529.0
-178.4192 -182.13629 530.0
-175.03177 -182.47993 531.0
-172.27551 -183.5109 534.0
-169.4772 -184.54185 537.0
-166.63681 -185.57281 540.0
-163.15118 -185.91647 541.0
-163.18623 -190.38396 554.0
-160.1635 -191.41492 557.0
-157.09868 -192.44588 560.0
-153.71825 -193.1332 562.0
-150.04327 -193.47684 563.0
-146.35423 -193.8205 564.0
-142.6512 -194.16414 565.0
-138.68867 -194.16414 565.0
-134.72614 -194.16414 565.0
-131.22649 -194.85144 567.0
-127.69878 -195.53877 569.0
-124.36043 -196.56972 572.0
-120.559204 -196.91338 573.0
-117.15073 -197.94434 576.0
-113.896545 -199.31894 580.0
-110.39687 -200.34991 583.0
-106.49045 -200.69357 584.0
-102.92067 -201.72452 587.0
-98.97217 -202.06818 588.0
-95.33225 -203.09914 591.0
-91.49594 -203.78644 593.0
-87.778885 -204.8174 596.0
-83.87947 -205.5047 598.0
-79.952 -206.19202 600.0
-76.24897 -207.56662 604.0
-72.25135 -208.25394 606.0
-248.57356 -185.50267 529.0
-244.86353 -185.50267 529.0
-242.06522 -186.20401 531.0
-241.24466 -191.46402 546.0
-237.85019 -191.81467 547.0
-225.09996 -190.76266 544.0
-219.65761 -189.36002 540.0
-215.8704 -189.36002 540.0
-211.29771 -188.65868 538.0
-206.75307 -187.95734 536.0
-202.2365 -187.25601 534.0
-197.74796 -186.55467 532.0
-193.28748 -185.85335 530.0
-189.21272 -185.50267 529.0
-185.50267 -185.50267 529.0
-181.79263 -185.50267 529.0
-178.4192 -185.85335 530.0
-175.36139 -186.55467 532.0
-172.27551 -187.25601 534.0
-169.7928 -188.65868 538.0
-166.63681 -189.36002 540.0
-166.77007 -193.91867 553.0
-163.18623 -194.26935 554.0
-159.87595 -194.97067 556.0
-156.53761 -195.67201 558.0
-153.1712 -196.37334 560.0
-149.51025 -196.72401 561.0
-145.57576 -196.72401 561.0
-141.89377 -197.07468 562.0
-138.19774 -197.42534 563.0
-134.72614 -198.12668 565.0
-130.76361 -198.12668 565.0
-127.249916 -198.82802 567.0
-123.925606 -199.88002 570.0
-120.3488 -200.58134 572.0
-116.947334 -201.63335 575.0
-113.5038 -202.68535 578.0
-109.8288 -203.38667 580.0
-105.94341 -203.73734 581.0
-102.57001 -205.14001 585.0
-98.63553 -205.49068 586.0
-95.009636 -206.54266 589.0
-91.187355 -207.24402 591.0
-87.6316 -208.64667 595.0
-83.739204 -209.348 597.0
-79.952 -210.40001 600.0
-76.24897 -211.80267 604.0
-72.0129 -211.80267 604.0
-255.02585 -188.49736 527.0
-250.85292 -188.13968 526.0
-247.63379 -188.49736 527.0
-243.47488 -188.13968 526.0
-239.78587 -188.13968 526.0
-237.44344 -189.21274 529.0
-240.36098 -194.57793 544.0
-236.5457 -194.57793 544.0
-232.30266 -194.22025 543.0
-227.6528 -193.50488 541.0
-223.44481 -193.1472 540.0
-219.25085 -192.78954 539.0
-214.67113 -192.07416 537.0
-210.5122 -191.71648 536.0
-206.36734 -191.3588 535.0
-202.2365 -191.00113 534.0
-197.00455 -189.5704 530.0
-193.28748 -189.5704 530.0
-189.21272 -189.21274 529.0
-185.50267 -189.21274 529.0
-181.79263 -189.21274 529.0
-178.75584 -189.92809 531.0
-175.69101 -190.64345 533.0
-172.92075 -191.71648 536.0
-170.42401 -193.1472 540.0
-167.25398 -193.86256 542.0
-166.77007 -197.79704 553.0
-163.18623 -198.15472 554.0
-159.30086 -198.15472 554.0
-155.97653 -198.87009 556.0
-152.62416 -199.58545 558.0
-148.71074 -199.58545 558.0
-144.79727 -199.58545 558.0
-141.13632 -199.94313 559.0
-137.7068 -200.65848 561.0
-134.01079 -201.01616 562.0
-130.53217 -201.73154 564.0
-126.80106 -202.0892 565.0
-123.490776 -203.16225 568.0
-120.138405 -204.23528 571.0
-116.74396 -205.30833 574.0
-113.30743 -206.38136 577.0
-109.63944 -207.09673 579.0
-105.94341 -207.81209 581.0
-102.39467 -208.88513 584.0
-98.4672 -209.2428 585.0
-94.848335 -210.31584 588.0
-91.187355 -211.38889 591.0
-87.484314 -212.46193 594.0
-83.87947 -213.89265 598.0
-260.92404 -191.0993 524.0
-256.75815 -190.73462 523.0
-253.5741 -191.0993 524.0
-250.376 -191.464 525.0
-245.75421 -190.73462 523.0
-241.16048 -190.00522 521.0
-237.9624 -190.36992 522.0
-235.64801 -191.464 525.0
-238.59361 -196.9344 540.0
-234.80641 -196.9344 540.0
-231.01921 -196.9344 540.0
-226.8112 -196.5697 539.0
-222.61723 -196.20502 538.0
-218.4373 -195.84032 537.0
-214.27136 -195.47562 536.0
-209.72672 -194.74625 534.0
-205.98161 -194.74625 534.0
-202.2365 -194.74625 534.0
-197.00455 -193.28748 530.0
-193.28748 -193.28748 530.0
-189.21272 -192.92278 529.0
-185.50267 -192.92278 529.0
-182.13628 -193.28748 530.0
-179.0925 -194.01686 532.0
-175.69101 -194.38156 533.0
-174.21121 -196.9344 540.0
-171.0552 -197.66379 542.0
-169.4141 -200.21664 549.0
-166.16692 -200.94603 551.0
-162.30257 -200.94603 551.0
-159.01332 -201.67542 553.0
-155.41547 -202.0401 554.0
-151.8036 -202.4048 555.0
-147.91121 -202.4048 555.0
-144.53778 -203.13419 557.0
-140.63136 -203.13419 557.0
-137.46133 -204.22827 560.0
-133.77232 -204.59297 561.0
-130.06929 -204.95766 562.0
-126.80106 -206.05173 565.0
-123.27336 -206.78111 567.0
-119.928 -207.8752 570.0
-116.54057 -208.96928 573.0
-113.111046 -210.06337 576.0
-109.63944 -211.15746 579.0
-105.94341 -211.88683 581.0
-102.39467 -212.98091 584.0
-98.4672 -213.3456 585.0
-94.848335 -214.43968 588.0
-91.34165 -215.89845 592.0
-287.196 -195.146 525.0
-281.3539 -193.65918 521.0
-270.39206 -193.65918 521.0
-266.73813 -193.65918 521.0
-263.08417 -193.65918 521.0
-259.4302 -193.65918 521.0
-255.77628 -193.65918 521.0
-252.12234 -193.65918 521.0
-246.56076 -192.17235 517.0
-242.93486 -192.17235 517.0
-240.23473 -192.91576 519.0
-237.05067 -193.28748 520.0
-233.40375 -193.28748 520.0
-237.2681 -199.60648 537.0
-233.50192 -199.60648 537.0
-229.73576 -199.60648 537.0
-225.54881 -199.23477 536.0
-221.37587 -198.86307 535.0
-217.21698 -198.49135 534.0
-213.47183 -198.49135 534.0
-209.72672 -198.49135 534.0
-205.59587 -198.11964 533.0
-201.85776 -198.11964 533.0
-197.37625 -197.37624 531.0
-193.28748 -197.00453 530.0
-189.5704 -197.00453 530.0
-185.85333 -197.00453 530.0
-182.82358 -197.74794 532.0
-179.76578 -198.49135 534.0
-177.00952 -199.60648 537.0
-174.85643 -201.46501 542.0
-172.31761 -202.95183 546.0
-169.1055 -203.69525 548.0
-165.56378 -204.06696 549.0
-161.71342 -204.06696 549.0
-158.4382 -204.81038 551.0
-155.13493 -205.55379 553.0
-151.53009 -205.92549 554.0
-147.64471 -205.92549 554.0
-143.7593 -205.92549 554.0
-140.37889 -206.6689 556.0
-136.9704 -207.41232 558.0
-133.53387 -208.15573 560.0
-130.06929 -208.89914 562.0
-126.80106 -210.01427 565.0
-123.05595 -210.38597 566.0
-120.138405 -212.2445 571.0
-116.947334 -213.73132 575.0
-113.111046 -214.10304 576.0
-109.45007 -214.84645 578.0
-106.308105 -216.70499 583.0
-98.97217 -218.56354 588.0
-94.68703 -218.19182 587.0
-280.81387 -196.9344 520.0
-275.5679 -195.79823 517.0
-272.46802 -196.17696 518.0
-269.3541 -196.55566 519.0
-264.69022 -195.79823 517.0
-261.06433 -195.79823 517.0
-256.9405 -195.41953 516.0
-252.33974 -194.66206 514.0
-248.7349 -194.66206 514.0
-245.13005 -194.66206 514.0
-241.52516 -194.66206 514.0
-238.38321 -195.0408 515.0
-235.68307 -195.79823 517.0
-232.05719 -195.79823 517.0
-236.38441 -202.6152 535.0
-232.19743 -202.23647 534.0
-228.45232 -202.23647 534.0
-224.70721 -202.23647 534.0
-220.9621 -202.23647 534.0
-217.21698 -202.23647 534.0
-213.07208 -201.85776 533.0
-208.94124 -201.47903 532.0
-205.21014 -201.47903 532.0
-201.10034 -201.10031 531.0
-197.37625 -201.10031 531.0
-193.28748 -200.7216 530.0
-189.5704 -200.7216 530.0
-186.20401 -201.10031 531.0
-183.16724 -201.85776 533.0
-180.1024 -202.6152 535.0
-177.99841 -204.5088 540.0
-175.17905 -205.64496 543.0
-172.31761 -206.78111 546.0
-168.48834 -206.78111 546.0
-164.96063 -207.15984 547.0
-161.41887 -207.53856 548.0
-157.86311 -207.91727 549.0
-154.29333 -208.296 550.0
-150.98305 -209.05344 552.0
-147.3782 -209.43216 553.0
-143.7593 -209.81087 554.0
-140.1264 -210.1896 555.0
-136.72495 -210.94704 557.0
-133.53387 -212.0832 560.0
-130.06929 -212.84064 562.0
-126.80106 -213.9768 565.0
-123.27336 -214.73424 567.0
-95.009636 -223.06607 589.0
-279.53745 -197.10973 511.0
-277.5737 -198.26692 514.0
-273.96884 -198.26692 514.0
-270.364 -198.26692 514.0
-266.75916 -198.26692 514.0
-263.15433 -198.26692 514.0
-258.53952 -197.49545 512.0
-254.45074 -197.10973 511.0
-250.86694 -197.10973 511.0
-247.28314 -197.10973 511.0
-243.69933 -197.10973 511.0
-240.58539 -197.49545 512.0
-237.45746 -197.88118 513.0
-234.31548 -198.26692 514.0
-231.60834 -199.03839 516.0
-235.94258 -205.98158 534.0
-231.76262 -205.59586 533.0
-228.02452 -205.59586 533.0
-224.2864 -205.59586 533.0
-220.13452 -205.21013 532.0
-216.40343 -205.21013 532.0
-211.8728 -204.43866 530.0
-208.15575 -204.43866 530.0
-204.8244 -204.82439 531.0
-200.7216 -204.43866 530.0
-197.00455 -204.43866 530.0
-193.65216 -204.82439 531.0
-190.28577 -205.21013 532.0
-186.90533 -205.59586 533.0
-183.5109 -205.98158 534.0
-180.7757 -207.1388 537.0
-177.99841 -208.29599 540.0
-174.85643 -209.06746 542.0
-171.6864 -209.83893 544.0
-168.17973 -210.22466 545.0
-164.65904 -210.61038 546.0
-160.82976 -210.61038 546.0
-157.28802 -210.99612 547.0
-153.73227 -211.38185 548.0
-150.436 -212.15334 550.0
-147.1117 -212.92479 552.0
-143.7593 -213.69626 554.0
-139.87392 -213.69626 554.0
-136.72495 -214.85345 557.0
-133.53387 -216.01067 560.0
-130.06929 -216.78212 562.0
-277.89633 -199.51529 508.0
-274.33356 -199.51529 508.0
-271.3038 -199.90805 509.0
-268.26 -200.30078 510.0
-264.1642 -199.90805 509.0
-260.08246 -199.51529 508.0
-256.0147 -199.12256 507.0
-252.95692 -199.51529 508.0
-250.376 -200.30078 510.0
-247.28314 -200.69354 511.0
-243.69933 -200.69354 511.0
-240.1155 -200.69354 511.0
-237.45746 -201.47902 513.0
-234.31548 -201.87178 514.0
-230.71063 -201.87178 514.0
-234.1752 -208.15572 530.0
-230.45815 -208.15572 530.0
-227.16888 -208.54848 531.0
-223.024 -208.15572 530.0
-219.30695 -208.15572 530.0
-215.58987 -208.15572 530.0
-211.47304 -207.76297 529.0
-208.15575 -208.15572 530.0
-204.8244 -208.54848 531.0
-201.10034 -208.54848 531.0
-197.37625 -208.54848 531.0
-194.01686 -208.94121 532.0
-190.64345 -209.33397 533.0
-187.25601 -209.7267 534.0
-183.85454 -210.11946 535.0
-181.11234 -211.2977 538.0
-177.99841 -212.08319 540.0
-174.85643 -212.86868 542.0
-171.3708 -213.26143 543.0
-167.87115 -213.65417 544.0
-164.05591 -213.65417 544.0
-160.82976 -214.43967 546.0
-157.00047 -214.43967 546.0
-153.45174 -214.83241 547.0
-150.16249 -215.6179 549.0
-146.84518 -216.40341 551.0
-143.7593 -217.58165 554.0
-140.1264 -217.97438 555.0
-136.72495 -218.75989 557.0
-274.6141 -200.67953 502.0
-272.17343 -201.47905 504.0
-269.17175 -201.87881 505.0
-265.63 -201.87881 505.0
-262.0883 -201.87881 505.0
-259.05853 -202.27856 506.0
-256.0147 -202.67833 507.0
-252.45897 -202.67833 507.0
-249.39415 -203.0781 508.0
-246.79921 -203.87761 510.0
-242.74551 -203.47784 509.0
-238.23592 -202.67833 507.0
-235.14305 -203.0781 508.0
-232.94788 -204.27736 511.0
-229.81291 -204.67712 512.0
-233.73338 -211.47305 529.0
-230.0233 -211.47305 529.0
-226.31325 -211.47305 529.0
-222.60321 -211.47305 529.0
-218.89316 -211.47305 529.0
-215.18312 -211.47305 529.0
-211.8728 -211.87282 530.0
-208.15575 -211.87282 530.0
-204.8244 -212.27257 531.0
-201.47905 -212.67233 532.0
-198.11967 -213.0721 533.0
-194.38155 -213.0721 533.0
-191.00111 -213.47185 534.0
-187.25601 -213.47185 534.0
-184.54185 -214.67113 537.0
-181.44897 -215.47066 539.0
-177.66876 -215.47066 539.0
-174.21121 -215.8704 540.0
-171.0552 -216.66994 542.0
-167.56256 -217.0697 543.0
-164.05591 -217.46947 544.0
-160.5352 -217.8692 545.0
-157.00047 -218.26897 546.0
-153.45174 -218.66873 547.0
-150.16249 -219.46826 549.0
-146.84518 -220.26776 551.0
-143.4998 -221.06729 553.0
-140.63136 -222.66634 557.0
-272.973 -202.97989 499.0
-270.55338 -203.79344 501.0
-267.5727 -204.20023 502.0
-264.578 -204.607 503.0
-261.5693 -205.01376 504.0
-258.03458 -205.01376 504.0
-255.0048 -205.42055 505.0
-251.46307 -205.42055 505.0
-247.92134 -205.42055 505.0
-244.37961 -205.42055 505.0
-240.36098 -205.01376 504.0
-236.82623 -205.01376 504.0
-233.75441 -205.42055 505.0
-231.1244 -206.23409 507.0
-228.0175 -206.64085 508.0
-232.8497 -214.36955 527.0
-229.15366 -214.36955 527.0
-225.45763 -214.36955 527.0
-222.1824 -214.77634 528.0
-218.89316 -215.18309 529.0
-215.58987 -215.58989 530.0
-212.27257 -215.99663 531.0
-208.94124 -216.40341 532.0
-205.59587 -216.8102 533.0
-201.85776 -216.8102 533.0
-198.49138 -217.21696 534.0
-194.74623 -217.21696 534.0
-191.35881 -217.62375 535.0
-187.95734 -218.03052 536.0
-184.54185 -218.4373 537.0
-181.11234 -218.84407 538.0
-177.33914 -218.84407 538.0
-174.21121 -219.6576 540.0
-170.73961 -220.06438 541.0
-167.56256 -220.87793 543.0
-163.75433 -220.87793 543.0
-160.24063 -221.28471 544.0
-157.00047 -222.09824 546.0
-153.45174 -222.505 547.0
-150.436 -223.72534 550.0
-271.8789 -205.65198 497.0
-269.4733 -206.47955 499.0
-265.97366 -206.47955 499.0
-263.0 -206.89334 500.0
-259.49335 -206.89334 500.0
-255.47472 -206.47955 499.0
-252.48001 -206.89334 500.0
-249.96924 -207.7209 502.0
-246.44855 -207.7209 502.0
-242.92786 -207.7209 502.0
-239.40717 -207.7209 502.0
-235.88646 -207.7209 502.0
-232.82866 -208.13469 503.0
-230.21268 -208.96227 505.0
-227.56865 -209.78984 507.0
-232.40785 -217.6518 526.0
-228.71883 -217.6518 526.0
-225.45763 -218.06558 527.0
-222.60321 -218.89316 529.0
-218.89316 -218.89316 529.0
-215.58987 -219.30695 530.0
-212.67232 -220.13452 532.0
-209.33398 -220.54831 533.0
-205.98161 -220.9621 534.0
-202.2365 -220.9621 534.0
-198.86307 -221.37585 535.0
-195.11095 -221.37585 535.0
-191.71648 -221.78964 536.0
-188.30801 -222.20343 537.0
-184.54185 -222.20343 537.0
-180.7757 -222.20343 537.0
-177.66876 -223.031 539.0
-174.21121 -223.4448 540.0
-170.42401 -223.4448 540.0
-167.56256 -224.68617 543.0
-164.05591 -225.09996 544.0
-160.24063 -225.09996 544.0
-157.28802 -226.34132 547.0
-154.29333 -227.58266 550.0

