ply
format ascii 1.0
comment made by @arthurmuchir
element vertex 267
property float x
property float y
property float z
end_header
-193.50488 -166.94539 541.0
-190.06134 -167.25398 542.0
-195.84032 -169.4772 537.0
-193.1472 -170.424 540.0
-189.36 -170.424 540.0
-186.60376 -171.3708 543.0
-202.99394 -172.92075 536.0
-199.23479 -172.92075 536.0
-195.84032 -173.24335 537.0
-192.43185 -173.56596 538.0
-189.36 -174.2112 540.0
-186.26012 -174.85643 542.0
-182.4589 -174.85643 542.0
-205.59587 -175.69101 533.0
-202.2365 -176.02063 534.0
-198.86307 -176.35027 535.0
-195.11095 -176.35027 535.0
-191.71648 -176.67989 536.0
-188.30801 -177.00952 537.0
-185.5728 -177.99838 540.0
-181.78561 -177.99838 540.0
-208.94124 -179.09247 532.0
-205.21014 -179.09247 532.0
-201.47905 -179.09247 532.0
-198.11967 -179.42911 533.0
-194.74623 -179.76575 534.0
-191.35881 -180.10239 535.0
-188.30801 -180.77567 537.0
-185.22916 -181.44896 539.0
-270.2378 -169.76476 494.0
-267.3132 -170.10841 495.0
-263.3086 -169.76476 494.0
-262.474 -171.48303 499.0
-257.9364 -170.79572 497.0
-211.07327 -181.44897 528.0
-207.76299 -181.79262 529.0
-204.05295 -181.79262 529.0
-201.10034 -182.47993 531.0
-198.11967 -183.16724 533.0
-194.74623 -183.5109 534.0
-191.71648 -184.1982 536.0
-174.8424 -190.38396 554.0
-170.95703 -190.38396 554.0
-167.3732 -190.72762 555.0
-268.04962 -171.82668 490.0
-264.61307 -171.82668 490.0
-261.70953 -172.17734 491.0
-259.84402 -173.22934 494.0
-258.45535 -174.63202 498.0
-218.47937 -185.15201 528.0
-214.36957 -184.80135 527.0
-210.67352 -184.80135 527.0
-206.9775 -184.80135 527.0
-204.05295 -185.50267 529.0
-201.10034 -186.20401 531.0
-198.11967 -186.90533 533.0
-194.74623 -187.25601 534.0
-177.43735 -192.86667 550.0
-174.21121 -193.56801 552.0
-170.95703 -194.26935 554.0
-167.07164 -194.26935 554.0
-163.77536 -194.97067 556.0
-266.4085 -174.19017 487.0
-262.99298 -174.19017 487.0
-260.64352 -174.90553 489.0
-258.26602 -175.62088 491.0
-256.8984 -177.0516 495.0
-221.76161 -188.49736 527.0
-217.238 -187.782 525.0
-213.55602 -187.782 525.0
-210.27376 -188.13968 526.0
-206.9775 -188.49736 527.0
-204.05295 -189.21274 529.0
-200.7216 -189.5704 530.0
-198.11967 -190.64345 533.0
-188.32204 -196.00865 548.0
-184.14209 -195.65097 547.0
-180.96503 -196.36633 549.0
-177.11472 -196.36633 549.0
-173.58 -196.724 550.0
-170.03127 -197.08168 551.0
-167.07164 -198.15472 554.0
-163.4808 -198.5124 555.0
-263.6733 -175.7822 482.0
-261.91293 -176.87627 485.0
-260.11053 -177.97035 488.0
-257.74002 -178.69972 490.0
-255.86043 -179.79381 493.0
-224.602 -191.464 525.0
-220.4992 -191.0993 524.0
-216.82423 -191.0993 524.0
-213.14925 -191.0993 524.0
-209.87401 -191.464 525.0
-206.9775 -192.19339 527.0
-204.05295 -192.92278 529.0
-200.7216 -193.28748 530.0
-191.11334 -198.75787 545.0
-187.29108 -198.75787 545.0
-183.80545 -199.12256 546.0
-179.97617 -199.12256 546.0
-176.4695 -199.48726 547.0
-173.2644 -200.21664 549.0
-170.03127 -200.94603 551.0
-167.07164 -202.0401 554.0
-163.18623 -202.0401 554.0
-263.6733 -179.16261 482.0
-260.29285 -179.16261 482.0
-258.51147 -180.27773 485.0
-257.21402 -181.76456 489.0
-254.82248 -182.50798 491.0
-227.41434 -194.40259 523.0
-223.31856 -194.03088 522.0
-219.2368 -193.65918 521.0
-216.41043 -194.40259 523.0
-213.14925 -194.77429 524.0
-209.87401 -195.146 525.0
-206.9775 -195.8894 527.0
-204.05295 -196.63283 529.0
-194.22025 -201.83672 543.0
-190.412 -201.83672 543.0
-186.60376 -201.83672 543.0
-183.13219 -202.20842 544.0
-179.64655 -202.58012 545.0
-176.14688 -202.95183 546.0
-172.9488 -203.69525 548.0
-170.03127 -204.81038 551.0
-262.57922 -181.7856 480.0
-259.75284 -182.16432 481.0
-256.91245 -182.54303 482.0
-256.16202 -184.43663 487.0
-254.30348 -185.5728 490.0
-230.19865 -197.31311 521.0
-225.67503 -196.55566 519.0
-222.46294 -196.9344 520.0
-219.2368 -197.31311 521.0
-216.41043 -198.07056 523.0
-213.14925 -198.44926 524.0
-209.87401 -198.828 525.0
-206.9775 -199.58543 527.0
-196.9344 -204.5088 540.0
-193.1472 -204.5088 540.0
-189.36 -204.5088 540.0
-185.91647 -204.88751 541.0
-182.79553 -205.64496 543.0
-179.3169 -206.02367 544.0
-176.14688 -206.78111 546.0
-172.63321 -207.15984 547.0
-261.48514 -184.38052 478.0
-259.2128 -185.152 480.0
-256.91245 -185.92346 482.0
-255.11002 -187.08066 485.0
-253.2655 -188.23785 488.0
-232.05719 -199.42413 517.0
-228.43129 -199.42413 517.0
-224.80539 -199.42413 517.0
-221.60732 -199.80986 518.0
-219.2368 -200.96706 521.0
-215.99666 -201.35278 522.0
-213.14925 -202.12425 524.0
-210.27376 -202.89574 526.0
-202.99394 -206.75305 536.0
-199.23479 -206.75305 536.0
-195.84032 -207.1388 537.0
-192.78952 -207.91026 539.0
-189.36 -208.29599 540.0
-185.5728 -208.29599 540.0
-182.12225 -208.68173 541.0
-179.3169 -209.83893 544.0
-176.14688 -210.61038 546.0
-260.9381 -187.34015 477.0
-258.13275 -187.7329 478.0
-256.37943 -188.91115 481.0
-254.58401 -190.08937 484.0
-252.74652 -191.26761 487.0
-234.77135 -202.26451 515.0
-231.15947 -202.26451 515.0
-227.98946 -202.65727 516.0
-224.80539 -203.05 517.0
-221.1795 -203.05 517.0
-218.3952 -203.83551 519.0
-215.58287 -204.621 521.0
-212.74248 -205.4065 523.0
-206.75307 -210.51219 536.0
-202.6152 -210.11946 535.0
-198.49138 -209.7267 534.0
-195.47563 -210.51219 536.0
-192.07416 -210.90495 537.0
-188.65868 -211.2977 538.0
-185.5728 -212.08319 540.0
-182.12225 -212.47592 541.0
-179.3169 -213.65417 544.0
-259.297 -189.48625 474.0
-258.13275 -191.0853 478.0
-255.8464 -191.88481 480.0
-253.53201 -192.68433 482.0
-252.74652 -194.68314 487.0
-241.52516 -205.47665 514.0
-237.92032 -205.47665 514.0
-234.31548 -205.47665 514.0
-230.71063 -205.47665 514.0
-227.5476 -205.87642 515.0
-224.37056 -206.27617 516.0
-221.1795 -206.67593 517.0
-218.3952 -207.47545 519.0
-215.58287 -208.27496 521.0
-209.33398 -213.0721 533.0
-205.59587 -213.0721 533.0
-201.85776 -213.0721 533.0
-198.49138 -213.47185 534.0
-194.74623 -213.47185 534.0
-191.35881 -213.87161 535.0
-188.30801 -214.67113 537.0
-185.5728 -215.8704 540.0
-182.4589 -216.66994 542.0
-259.297 -192.81056 474.0
-257.0527 -193.62411 476.0
-255.8464 -195.2512 480.0
-253.53201 -196.06476 482.0
-240.58539 -208.26796 512.0
-237.45746 -208.67473 513.0
-234.31548 -209.0815 514.0
-230.71063 -209.0815 514.0
-227.5476 -209.48827 515.0
-224.37056 -209.89505 516.0
-221.1795 -210.30182 517.0
-218.81601 -211.52214 520.0
-211.8728 -215.58989 530.0
-208.15575 -215.58989 530.0
-204.05295 -215.18309 529.0
-200.7216 -215.58989 530.0
-198.11967 -216.8102 533.0
-194.74623 -217.21696 534.0
-191.35881 -217.62375 535.0
-188.30801 -218.4373 537.0
-185.5728 -219.6576 540.0
-167.56256 -220.87793 543.0
-164.35747 -221.69148 545.0
-160.82976 -222.09824 546.0
-157.00047 -222.09824 546.0
-258.74994 -195.7211 473.0
-255.97264 -196.13489 474.0
-255.8464 -198.6176 480.0
-253.00601 -199.03139 481.0
-246.31529 -210.61742 509.0
-242.2686 -210.20364 508.0
-239.64561 -211.0312 510.0
-236.53168 -211.44499 511.0
-233.40375 -211.85878 512.0
-230.26176 -212.27257 513.0
-227.5476 -213.10014 515.0
-224.80539 -213.9277 517.0
-221.1795 -213.9277 517.0
-214.36957 -218.06558 527.0
-211.07327 -218.47937 528.0
-207.37025 -218.47937 528.0
-204.05295 -218.89316 529.0
-200.3429 -218.89316 529.0
-197.74796 -220.13452 532.0
-194.74623 -220.9621 534.0
-191.35881 -221.37585 535.0
-175.50165 -225.09996 544.0
-171.6864 -225.09996 544.0
-167.56256 -224.68617 543.0
-164.05591 -225.09996 544.0
-160.24063 -225.09996 544.0
-157.00047 -225.92754 546.0
-153.1712 -225.92754 546.0

