ply
format ascii 1.0
comment made by @arthurmuchir
element vertex 891
property float x
property float y
property float z
end_header
-150.57628 -114.91347 565.0
-146.61374 -114.91347 565.0
-142.39871 -114.71008 564.0
-138.68867 -114.91347 565.0
-134.72614 -114.91347 565.0
-131.22649 -115.32025 567.0
-158.78188 -119.0864 566.0
-154.5388 -118.876 565.0
-150.04327 -118.4552 563.0
-146.35423 -118.6656 564.0
-140.1264 -116.772 555.0
-136.23401 -116.772 555.0
-134.01079 -118.2448 562.0
-130.76361 -118.876 565.0
-163.32652 -123.49076 568.0
-158.78188 -123.05594 566.0
-154.26529 -122.62112 564.0
-146.04567 -119.14251 548.0
-142.98083 -119.79474 551.0
-139.36896 -120.01215 552.0
-135.98854 -120.44699 554.0
-132.81851 -121.09922 557.0
-130.30074 -122.40371 563.0
-127.0255 -123.05594 566.0
-167.31007 -127.47434 568.0
-163.03896 -127.249916 567.0
-158.50134 -126.801056 565.0
-154.26529 -126.57664 564.0
-145.51265 -122.53695 546.0
-141.68336 -122.53695 546.0
-138.10657 -122.761375 547.0
-134.7612 -123.210236 549.0
-131.8647 -124.10794 553.0
-128.9121 -125.005646 557.0
-126.80106 -126.801056 565.0
-174.21121 -127.75487 552.0
-170.64842 -127.986305 553.0
-166.46849 -127.75487 552.0
-162.59712 -127.75487 552.0
-158.72577 -127.75487 552.0
-154.8544 -127.75487 552.0
-150.98305 -127.75487 552.0
-143.9136 -124.977585 540.0
-140.1264 -124.977585 540.0
-137.34912 -125.90335 544.0
-134.27028 -126.59767 547.0
-131.62625 -127.75487 552.0
-129.83784 -129.83783 561.0
-125.90336 -129.83783 561.0
-121.96888 -129.83783 561.0
-118.244804 -130.06927 562.0
-114.91347 -130.76358 565.0
-180.30579 -130.43399 547.0
-177.11472 -130.91089 549.0
-173.2644 -130.91089 549.0
-169.4141 -130.91089 549.0
-165.56378 -130.91089 549.0
-162.00801 -131.14934 550.0
-158.15067 -131.14934 550.0
-154.29333 -131.14934 550.0
-145.78616 -127.095634 533.0
-142.31458 -127.3341 534.0
-139.34792 -128.04945 537.0
-136.3392 -128.76482 540.0
-133.77934 -129.95708 545.0
-130.19553 -130.19553 546.0
-127.986336 -131.8647 553.0
-124.10794 -131.8647 553.0
-120.88181 -132.58008 556.0
-117.6136 -133.29543 559.0
-114.303314 -134.01079 562.0
-110.95094 -134.72614 565.0
-186.60376 -133.2884 543.0
-183.13219 -133.53387 544.0
-179.3169 -133.53387 544.0
-175.50165 -133.53387 544.0
-172.31761 -134.02481 546.0
-168.48834 -134.02481 546.0
-164.96063 -134.27026 547.0
-161.12431 -134.27026 547.0
-157.28802 -134.27026 547.0
-154.29333 -135.00667 550.0
-144.6921 -129.85187 529.0
-141.78156 -130.58827 532.0
-138.56944 -131.07921 534.0
-135.83424 -132.06107 538.0
-133.2884 -133.2884 543.0
-130.43398 -134.27026 547.0
-126.82913 -134.51575 548.0
-123.210236 -134.76122 549.0
-120.229576 -135.74307 553.0
-116.98241 -136.47948 556.0
-113.89654 -137.46135 560.0
-110.361824 -137.95227 562.0
-190.06134 -136.84416 542.0
-185.5728 -136.3392 540.0
-181.78561 -136.3392 540.0
-178.65765 -136.84416 542.0
-175.17905 -137.09665 543.0
-172.002 -137.6016 545.0
-168.48834 -137.85408 546.0
-164.65904 -137.85408 546.0
-160.82976 -137.85408 546.0
-157.57558 -138.35905 548.0
-148.12161 -133.30945 528.0
-144.14505 -133.05696 527.0
-140.71553 -133.30945 528.0
-138.56944 -134.82433 534.0
-135.32928 -135.32928 536.0
-133.04294 -136.84416 542.0
-129.71863 -137.34914 544.0
-125.903366 -137.34914 544.0
-122.536964 -137.85408 546.0
-119.57734 -138.864 550.0
-116.351204 -139.62144 553.0
-113.48977 -140.88385 558.0
-109.96908 -141.3888 560.0
-193.1472 -140.1264 540.0
-188.65868 -139.6074 538.0
-184.54185 -139.34792 537.0
-181.44897 -139.86691 539.0
-177.99841 -140.1264 540.0
-174.85643 -140.64539 542.0
-171.6864 -141.16438 544.0
-167.87115 -141.16438 544.0
-164.35747 -141.42387 545.0
-160.82976 -141.68336 546.0
-157.86311 -142.46185 549.0
-147.56053 -136.4935 526.0
-143.87154 -136.4935 526.0
-140.44902 -136.75299 527.0
-138.30994 -138.30995 533.0
-135.32928 -139.08842 536.0
-132.552 -140.1264 540.0
-128.7648 -140.1264 540.0
-125.44049 -140.64539 542.0
-122.088104 -141.16438 544.0
-119.14251 -142.20235 548.0
-115.930405 -142.98082 551.0
-113.286385 -144.5378 557.0
-109.96908 -145.31627 560.0
-195.47563 -142.84758 536.0
-191.71648 -142.84758 536.0
-187.60667 -142.58107 535.0
-183.5109 -142.31456 534.0
-180.43906 -142.84758 536.0
-177.33914 -143.38058 538.0
-174.21121 -143.9136 540.0
-171.3708 -144.71312 543.0
-167.87115 -144.97963 544.0
-164.65904 -145.51263 546.0
-161.12431 -145.77914 547.0
-158.15067 -146.57867 550.0
-157.94028 -150.04324 563.0
-143.87154 -140.18251 526.0
-140.18251 -140.18251 526.0
-138.82893 -142.58107 535.0
-135.32928 -142.84758 536.0
-131.8156 -143.11409 537.0
-128.7648 -143.9136 540.0
-124.977615 -143.9136 540.0
-122.088104 -144.97963 544.0
-118.925095 -145.77914 547.0
-116.1408 -147.11168 552.0
-113.286385 -148.44421 557.0
-109.96908 -149.24373 560.0
-194.74623 -146.05968 534.0
-190.64345 -145.78615 533.0
-186.55467 -145.51263 532.0
-183.16724 -145.78615 533.0
-179.76578 -146.05968 534.0
-176.35027 -146.3332 535.0
-173.24336 -146.88023 537.0
-170.42401 -147.7008 540.0
-167.56256 -148.52135 543.0
-164.96063 -149.61543 547.0
-161.71342 -150.16248 549.0
-158.72577 -150.98303 552.0
-157.65974 -153.71823 562.0
-146.60674 -146.60672 536.0
-142.84758 -146.60672 536.0
-139.08842 -146.60672 536.0
-135.58176 -146.88023 537.0
-131.8156 -146.88023 537.0
-128.52635 -147.42728 539.0
-124.977615 -147.7008 540.0
-122.088104 -148.79488 544.0
-118.925095 -149.61543 547.0
-116.56161 -151.53008 554.0
-112.67622 -151.53008 554.0
-109.57633 -152.62415 558.0
-106.041595 -153.1712 560.0
-198.49138 -149.8048 534.0
-194.38155 -149.52426 533.0
-189.92807 -148.96318 531.0
-185.85333 -148.68266 530.0
-182.47993 -148.96318 531.0
-179.0925 -149.24373 532.0
-175.69101 -149.52426 533.0
-172.92075 -150.36586 536.0
-169.7928 -150.92693 538.0
-167.25398 -152.04906 542.0
-164.65904 -153.17119 546.0
-162.00801 -154.29333 550.0
-160.1635 -156.25706 557.0
-150.36588 -150.36586 536.0
-146.3332 -150.08533 535.0
-142.84758 -150.36586 536.0
-139.08842 -150.36586 536.0
-135.58176 -150.6464 537.0
-132.06107 -150.92693 538.0
-128.7648 -151.48799 540.0
-125.44049 -152.04906 542.0
-122.088104 -152.61012 544.0
-118.70768 -153.17119 546.0
-115.930405 -154.57385 551.0
-112.67622 -155.41545 554.0
-109.18358 -155.97653 556.0
-105.66287 -156.53758 558.0
-201.10034 -152.68727 531.0
-197.00455 -152.39972 530.0
-193.28748 -152.39972 530.0
-189.21272 -152.11218 529.0
-185.50267 -152.11218 529.0
-181.79263 -152.11218 529.0
-178.4192 -152.39972 530.0
-175.69101 -153.26236 533.0
-172.59814 -153.83746 535.0
-169.4772 -154.41255 537.0
-166.63681 -155.27519 540.0
-164.35747 -156.71292 545.0
-160.82976 -157.00047 546.0
-160.73859 -160.73857 559.0
-150.36588 -154.125 536.0
-146.0597 -153.54991 534.0
-142.58109 -153.83746 535.0
-139.08842 -154.125 536.0
-135.58176 -154.41255 537.0
-132.06107 -154.70009 538.0
-128.7648 -155.27519 540.0
-125.44049 -155.85028 542.0
-122.088104 -156.42537 544.0
-118.70768 -157.00047 546.0
-115.72 -158.15067 550.0
-112.26945 -158.72575 552.0
-108.79083 -159.30084 554.0
-105.66287 -160.45102 558.0
-200.3429 -155.82225 529.0
-196.63284 -155.82225 529.0
-192.55807 -155.5277 528.0
-188.49736 -155.23312 527.0
-185.15201 -155.5277 528.0
-181.44896 -155.5277 528.0
-178.08258 -155.82225 529.0
-175.36139 -156.70593 532.0
-172.27551 -157.29504 534.0
-169.4772 -158.17873 537.0
-166.63681 -159.06241 540.0
-164.05591 -160.24065 544.0
-164.06992 -164.06993 557.0
-160.73859 -164.65904 559.0
-157.37921 -165.24817 561.0
-146.0597 -157.29504 534.0
-142.84758 -157.88417 536.0
-139.08842 -157.88417 536.0
-135.32928 -157.88417 536.0
-131.8156 -158.17873 537.0
-128.52635 -158.76785 539.0
-124.977615 -159.06241 540.0
-121.63925 -159.65154 542.0
-118.49027 -160.53522 545.0
-115.2992 -161.4189 548.0
-112.26945 -162.59714 552.0
-108.79083 -163.18625 554.0
-204.05295 -159.53229 529.0
-199.96416 -159.23073 528.0
-195.88943 -158.92915 527.0
-191.82869 -158.62758 526.0
-188.13968 -158.62758 526.0
-184.45067 -158.62758 526.0
-181.10532 -158.92915 527.0
-177.74594 -159.23073 528.0
-174.70213 -159.83388 530.0
-172.27551 -161.04016 534.0
-169.4772 -161.94489 537.0
-166.63681 -162.84961 540.0
-163.75433 -163.75433 543.0
-164.06992 -167.97635 557.0
-160.73859 -168.57951 559.0
-157.37921 -169.18265 561.0
-146.0597 -161.04016 534.0
-142.31458 -161.04016 534.0
-138.56944 -161.04016 534.0
-134.82433 -161.04016 534.0
-131.57014 -161.64333 536.0
-128.2879 -162.24646 538.0
-124.977615 -162.84961 540.0
-121.414825 -163.15118 541.0
-118.49027 -164.35747 545.0
-115.088806 -164.96062 547.0
-112.06606 -166.16692 551.0
-204.05295 -163.24236 529.0
-199.20674 -162.31659 526.0
-195.14601 -162.008 525.0
-191.0993 -161.69942 524.0
-187.78201 -162.008 525.0
-184.1 -162.008 525.0
-180.76167 -162.31659 526.0
-177.74594 -162.93376 528.0
-174.70213 -163.55095 530.0
-171.95291 -164.4767 533.0
-169.4772 -165.71104 537.0
-166.63681 -166.6368 540.0
-163.75433 -167.56256 543.0
-163.77536 -171.57419 556.0
-160.45105 -172.19136 558.0
-148.68268 -163.55095 530.0
-145.51265 -164.1681 532.0
-142.04807 -164.4767 533.0
-138.30994 -164.4767 533.0
-134.82433 -164.78528 534.0
-131.32468 -165.09387 535.0
-128.04945 -165.71104 537.0
-124.74617 -166.32822 539.0
-121.414825 -166.94539 541.0
-118.05544 -167.56256 543.0
-207.76299 -166.9524 529.0
-203.28148 -166.3212 527.0
-198.828 -165.69 525.0
-194.7743 -165.3744 524.0
-190.7346 -165.0588 523.0
-187.42432 -165.3744 524.0
-184.1 -165.69 525.0
-180.76167 -166.0056 526.0
-177.74594 -166.6368 528.0
-174.70213 -167.268 530.0
-171.95291 -168.2148 533.0
-169.4772 -169.4772 537.0
-166.63681 -170.424 540.0
-167.07164 -174.8424 554.0
-163.18623 -174.8424 554.0
-159.87595 -175.4736 556.0
-148.40215 -166.9524 529.0
-144.9656 -167.268 530.0
-141.78156 -167.8992 532.0
-138.30994 -168.2148 533.0
-134.82433 -168.5304 534.0
-131.07921 -168.5304 534.0
-127.33409 -168.5304 534.0
-124.05185 -169.1616 536.0
-120.96597 -170.1084 539.0
-117.403206 -170.424 540.0
-113.8264 -170.7396 541.0
-211.47304 -170.66245 529.0
-207.37025 -170.33983 528.0
-202.89574 -169.69461 526.0
-198.4493 -169.0494 524.0
-194.4026 -168.72676 523.0
-190.7346 -168.72676 523.0
-187.42432 -169.0494 524.0
-183.74934 -169.0494 524.0
-180.418 -169.372 525.0
-177.40929 -170.01723 527.0
-174.70213 -170.98506 530.0
-172.27551 -172.27551 534.0
-169.1616 -172.92075 536.0
-167.25398 -174.85643 542.0
-165.56378 -177.11472 549.0
-162.89168 -178.40517 553.0
-159.30086 -178.72778 554.0
-148.40215 -170.66245 529.0
-144.6921 -170.66245 529.0
-141.24855 -170.98506 530.0
-137.79095 -171.30768 531.0
-133.56192 -170.66245 529.0
-129.85187 -170.66245 529.0
-126.61873 -171.30768 531.0
-123.35754 -171.95291 533.0
-120.06826 -172.59813 535.0
-117.18578 -173.8886 539.0
-113.8264 -174.53381 541.0
-245.71214 -177.66876 539.0
-242.82967 -178.32802 541.0
-217.21698 -176.02063 534.0
-211.07327 -174.04288 528.0
-206.9775 -173.71324 527.0
-202.51001 -173.05399 525.0
-198.07056 -172.39474 523.0
-194.4026 -172.39474 523.0
-190.7346 -172.39474 523.0
-187.06665 -172.39474 523.0
-183.74934 -172.72437 524.0
-180.418 -173.05399 525.0
-177.40929 -173.71324 527.0
-174.3725 -174.37251 529.0
-172.27551 -176.02063 534.0
-169.4772 -177.00952 537.0
-167.87115 -179.3169 544.0
-164.96063 -180.30577 547.0
-162.00801 -181.29466 550.0
-158.72577 -181.95392 552.0
-148.40215 -174.37251 529.0
-144.6921 -174.37251 529.0
-140.98204 -174.37251 529.0
-137.01248 -174.04288 528.0
-133.05696 -173.71324 527.0
-129.36093 -173.71324 527.0
-126.14182 -174.37251 529.0
-122.663216 -174.70213 530.0
-119.84384 -176.02063 534.0
-116.75096 -177.00952 537.0
-113.616005 -177.99838 540.0
-242.54912 -176.39935 524.0
-238.87415 -176.39935 524.0
-242.38081 -181.78558 540.0
-239.4773 -182.45886 542.0
-235.67606 -182.45886 542.0
-229.30794 -180.43904 536.0
-224.70721 -179.76575 534.0
-220.13452 -179.09247 532.0
-215.18312 -178.08255 529.0
-210.67352 -177.40927 527.0
-206.58475 -177.07263 526.0
-202.51001 -176.736 525.0
-198.4493 -176.39935 524.0
-194.4026 -176.0627 523.0
-190.7346 -176.0627 523.0
-187.06665 -176.0627 523.0
-183.74934 -176.39935 524.0
-180.418 -176.736 525.0
-177.40929 -177.40927 527.0
-174.70213 -178.41919 530.0
-172.27551 -179.76575 534.0
-169.7928 -181.1123 538.0
-168.17973 -183.46878 545.0
-164.96063 -184.14207 547.0
-161.41887 -184.4787 548.0
-157.86311 -184.81535 549.0
-148.12161 -177.74591 528.0
-144.6921 -178.08255 529.0
-140.71553 -177.74591 528.0
-136.4935 -177.07263 526.0
-132.80449 -177.07263 526.0
-129.11548 -177.07263 526.0
-125.903366 -177.74591 528.0
-122.43177 -178.08255 529.0
-119.84384 -179.76575 534.0
-116.75096 -180.77567 537.0
-113.616005 -181.78558 540.0
-257.43845 -177.6688 517.0
-254.30348 -178.01244 518.0
-250.67056 -178.01244 518.0
-246.56076 -177.6688 517.0
-243.40474 -178.01244 518.0
-241.16048 -179.0434 521.0
-238.41827 -179.73071 523.0
-236.09688 -180.76166 526.0
-235.50073 -183.16724 533.0
-231.32779 -182.8236 532.0
-227.5967 -182.8236 532.0
-223.44481 -182.47993 531.0
-218.89316 -181.79262 529.0
-214.77634 -181.44897 528.0
-210.27376 -180.76166 526.0
-206.58475 -180.76166 526.0
-202.51001 -180.41801 525.0
-198.07056 -179.73071 523.0
-194.4026 -179.73071 523.0
-190.36992 -179.38705 522.0
-187.06665 -179.73071 523.0
-183.74934 -180.07436 524.0
-180.76167 -180.76166 526.0
-177.74594 -181.44897 528.0
-174.70213 -182.13629 530.0
-172.92075 -184.1982 536.0
-170.42401 -185.57281 540.0
-167.56256 -186.60378 543.0
-164.35747 -187.29108 545.0
-160.82976 -187.63474 546.0
-157.00047 -187.63474 546.0
-148.12161 -181.44897 528.0
-144.41856 -181.44897 528.0
-140.44902 -181.10532 527.0
-136.4935 -180.76166 526.0
-132.80449 -180.76166 526.0
-129.11548 -180.76166 526.0
-125.66492 -181.10532 527.0
-122.43177 -181.79262 529.0
-119.84384 -183.5109 534.0
-116.75096 -184.54185 537.0
-272.987 -184.45067 526.0
-260.0544 -180.59334 515.0
-256.9405 -180.94402 516.0
-253.32161 -180.94402 516.0
-249.70274 -180.94402 516.0
-245.13005 -180.24268 514.0
-241.52516 -180.24268 514.0
-238.38321 -180.59334 515.0
-237.05067 -182.34666 520.0
-237.44344 -185.50267 529.0
-234.61705 -186.20401 531.0
-230.45815 -185.85335 530.0
-226.31325 -185.50267 529.0
-222.60321 -185.50267 529.0
-218.06558 -184.80135 527.0
-213.96278 -184.45067 526.0
-209.87401 -184.1 525.0
-206.192 -184.1 525.0
-202.12427 -183.74934 524.0
-198.07056 -183.39867 523.0
-194.4026 -183.39867 523.0
-190.36992 -183.04802 522.0
-187.06665 -183.39867 523.0
-184.1 -184.1 525.0
-180.76167 -184.45067 526.0
-177.74594 -185.15201 528.0
-175.03177 -186.20401 531.0
-172.92075 -187.95734 536.0
-170.42401 -189.36002 540.0
-166.9454 -189.71068 541.0
-163.45276 -190.06134 542.0
-160.24063 -190.76266 544.0
-156.71294 -191.11334 545.0
-147.84106 -184.80135 527.0
-144.14505 -184.80135 527.0
-140.44902 -184.80135 527.0
-136.4935 -184.45067 526.0
-132.80449 -184.45067 526.0
-129.11548 -184.45067 526.0
-125.42646 -184.45067 526.0
-127.986336 -193.91867 553.0
-124.332375 -194.26935 554.0
-276.10092 -185.27824 518.0
-271.94202 -184.92056 517.0
-266.75916 -183.84753 514.0
-263.15433 -183.84753 514.0
-259.54944 -183.84753 514.0
-255.9446 -183.84753 514.0
-251.84882 -183.48985 513.0
-247.76706 -183.13217 512.0
-243.69933 -182.77449 511.0
-240.1155 -182.77449 511.0
-236.53168 -182.77449 511.0
-232.94788 -182.77449 511.0
-236.54572 -188.49736 527.0
-233.73338 -189.21274 529.0
-230.0233 -189.21274 529.0
-225.45763 -188.49736 527.0
-221.3408 -188.13968 526.0
-217.238 -187.782 525.0
-213.55602 -187.782 525.0
-209.47423 -187.42433 524.0
-205.40652 -187.06665 523.0
-201.73854 -187.06665 523.0
-197.69185 -186.70897 522.0
-194.0309 -186.70897 522.0
-190.7346 -187.06665 523.0
-187.06665 -187.06665 523.0
-184.1 -187.782 525.0
-180.76167 -188.13968 526.0
-178.08258 -189.21274 529.0
-175.69101 -190.64345 533.0
-172.92075 -191.71648 536.0
-170.10841 -192.78954 539.0
-166.63681 -193.1472 540.0
-162.84961 -193.1472 540.0
-159.35696 -193.50488 541.0
-155.8503 -193.86256 542.0
-152.61014 -194.57793 544.0
-143.598 -187.782 525.0
-145.51265 -195.29329 546.0
-142.20235 -196.00865 548.0
-138.864 -196.724 550.0
-135.74307 -197.79704 553.0
-132.10316 -198.15472 554.0
-277.0337 -187.08768 513.0
-273.96884 -187.45238 514.0
-270.364 -187.45238 514.0
-265.7212 -186.72299 512.0
-262.13037 -186.72299 512.0
-258.53952 -186.72299 512.0
-254.45074 -186.35829 511.0
-248.41228 -184.53482 506.0
-245.34746 -184.89952 507.0
-241.31479 -184.53482 506.0
-237.76604 -184.53482 506.0
-234.68016 -184.89952 507.0
-229.7568 -183.80545 504.0
-235.64801 -191.464 525.0
-231.966 -191.464 525.0
-228.28401 -191.464 525.0
-224.602 -191.464 525.0
-220.92001 -191.464 525.0
-216.82423 -191.0993 524.0
-212.74248 -190.73462 523.0
-208.67471 -190.36992 522.0
-205.01376 -190.36992 522.0
-201.35281 -190.36992 522.0
-197.69185 -190.36992 522.0
-193.65918 -190.00522 521.0
-190.7346 -190.73462 523.0
-187.42432 -191.0993 524.0
-184.1 -191.464 525.0
-181.10532 -192.19339 527.0
-178.08258 -192.92278 529.0
-175.36139 -194.01686 532.0
-172.59814 -195.11093 535.0
-169.7928 -196.20502 538.0
-165.71104 -195.84032 537.0
-162.24648 -196.20502 538.0
-159.06241 -196.9344 540.0
-155.2752 -196.9344 540.0
-152.04907 -197.66379 542.0
-148.52136 -198.02849 543.0
-145.24614 -198.75787 545.0
-141.94286 -199.48726 547.0
-138.61151 -200.21664 549.0
-135.98854 -202.0401 554.0
-132.10316 -202.0401 554.0
-276.80225 -188.08357 506.0
-274.33356 -188.827 508.0
-270.77078 -188.827 508.0
-266.682 -188.45528 507.0
-264.1642 -189.1987 509.0
-257.01062 -186.59674 502.0
-253.48993 -186.59674 502.0
-249.96924 -186.59674 502.0
-246.93947 -186.96844 503.0
-243.41176 -186.96844 503.0
-240.36098 -187.34015 504.0
-236.82623 -187.34015 504.0
-234.68016 -188.45528 507.0
-230.21268 -187.71187 505.0
-235.19916 -194.77429 524.0
-231.52419 -194.77429 524.0
-227.84917 -194.77429 524.0
-223.74638 -194.40259 523.0
-220.07841 -194.40259 523.0
-215.99666 -194.03088 522.0
-212.3357 -194.03088 522.0
-208.27496 -193.65918 521.0
-204.62102 -193.65918 521.0
-200.96707 -193.65918 521.0
-197.69185 -194.03088 522.0
-194.0309 -194.03088 522.0
-190.7346 -194.40259 523.0
-187.42432 -194.77429 524.0
-184.1 -195.146 525.0
-181.10532 -195.8894 527.0
-178.08258 -196.63283 529.0
-175.36139 -197.74794 532.0
-172.27551 -198.49135 534.0
-168.84601 -198.86307 535.0
-165.40247 -199.23477 536.0
-161.94489 -199.60648 537.0
-158.47328 -199.9782 538.0
-155.2752 -200.7216 540.0
-151.488 -200.7216 540.0
-148.24785 -201.46501 542.0
-145.24614 -202.58012 545.0
-142.20235 -203.69525 548.0
-138.61151 -204.06696 549.0
-276.25522 -191.2536 505.0
-272.17343 -190.87486 504.0
-267.5727 -190.11743 502.0
-263.526 -189.73872 501.0
-260.01233 -189.73872 501.0
-255.98668 -189.36 500.0
-252.48001 -189.36 500.0
-249.47128 -189.73872 501.0
-246.44855 -190.11743 502.0
-242.92786 -190.11743 502.0
-239.40717 -190.11743 502.0
-236.82623 -190.87486 504.0
-233.75441 -191.2536 505.0
-230.21268 -191.2536 505.0
-226.22209 -190.87486 504.0
-230.64049 -197.69183 522.0
-226.97952 -197.69183 522.0
-223.31856 -197.69183 522.0
-219.2368 -197.31311 521.0
-215.58287 -197.31311 521.0
-211.92892 -197.31311 521.0
-208.27496 -197.31311 521.0
-204.62102 -197.31311 521.0
-200.96707 -197.31311 521.0
-197.69185 -197.69183 522.0
-194.4026 -198.07056 523.0
-190.7346 -198.07056 523.0
-187.78201 -198.828 525.0
-184.45067 -199.20671 526.0
-181.10532 -199.58543 527.0
-178.08258 -200.34286 529.0
-175.03177 -201.10031 531.0
-171.95291 -201.85776 533.0
-168.53041 -202.23647 534.0
-164.7853 -202.23647 534.0
-161.64331 -202.99391 536.0
-158.17873 -203.37263 537.0
-154.70012 -203.75136 538.0
-151.488 -204.5088 540.0
-148.52136 -205.64496 543.0
-145.51265 -206.78111 546.0
-142.72133 -208.296 550.0
-272.973 -192.48093 499.0
-269.4733 -192.48093 499.0
-265.97366 -192.48093 499.0
-261.422 -191.70946 497.0
-257.9364 -191.70946 497.0
-255.47472 -192.48093 499.0
-251.97504 -192.48093 499.0
-248.97334 -192.86665 500.0
-246.44855 -193.63812 502.0
-242.92786 -193.63812 502.0
-238.45334 -192.86665 500.0
-234.94667 -192.86665 500.0
-231.44 -192.86665 500.0
-228.84508 -193.63812 502.0
-232.9549 -200.19559 519.0
-229.31499 -200.19559 519.0
-225.67503 -200.19559 519.0
-222.03513 -200.19559 519.0
-218.81601 -200.58133 520.0
-215.16907 -200.58133 520.0
-211.92892 -200.96706 521.0
-208.27496 -200.96706 521.0
-204.62102 -200.96706 521.0
-201.35281 -201.35278 522.0
-198.07056 -201.73853 523.0
-194.7743 -202.12425 524.0
-191.464 -202.51 525.0
-188.13968 -202.89574 526.0
-184.80135 -203.28146 527.0
-181.44896 -203.66719 528.0
-178.08258 -204.05293 529.0
-174.70213 -204.43866 530.0
-171.6303 -205.21013 532.0
-168.21481 -205.59586 533.0
-164.7853 -205.98158 534.0
-161.04018 -205.98158 534.0
-157.88416 -206.75305 536.0
-154.70012 -207.52454 538.0
-151.76854 -208.68173 541.0
-148.79489 -209.83893 544.0
-270.2378 -194.01685 494.0
-267.3132 -194.40959 495.0
-264.3746 -194.80234 496.0
-260.896 -194.80234 496.0
-257.41742 -194.80234 496.0
-254.45076 -195.19508 497.0
-251.97504 -195.98058 499.0
-248.47539 -195.98058 499.0
-244.4848 -195.58783 498.0
-240.02434 -194.80234 496.0
-236.54572 -194.80234 496.0
-233.53699 -195.19508 497.0
-230.51425 -195.58783 498.0
-227.47748 -195.98058 499.0
-232.05719 -203.05 517.0
-228.43129 -203.05 517.0
-224.80539 -203.05 517.0
-221.60732 -203.44276 518.0
-218.3952 -203.83551 519.0
-215.16907 -204.22826 520.0
-211.92892 -204.621 521.0
-208.27496 -204.621 521.0
-205.40652 -205.4065 523.0
-202.12427 -205.79924 524.0
-198.4493 -205.79924 524.0
-195.14601 -206.19199 525.0
-191.464 -206.19199 525.0
-188.13968 -206.58475 526.0
-184.80135 -206.97748 527.0
-181.44896 -207.37022 528.0
-178.08258 -207.76297 529.0
-174.70213 -208.15572 530.0
-171.30768 -208.54848 531.0
-168.21481 -209.33397 533.0
-164.7853 -209.7267 534.0
-161.34174 -210.11946 535.0
-158.17873 -210.90495 537.0
-155.2752 -212.08319 540.0
-152.3296 -213.26143 543.0
-269.1437 -196.68193 492.0
-266.77316 -197.48145 494.0
-263.3086 -197.48145 494.0
-260.37 -197.88121 495.0
-256.37943 -197.48145 494.0
-253.4268 -197.88121 495.0
-249.45024 -197.48145 494.0
-245.98566 -197.48145 494.0
-242.52107 -197.48145 494.0
-239.05649 -197.48145 494.0
-235.59192 -197.48145 494.0
-232.1273 -197.48145 494.0
-229.58849 -198.28096 496.0
-226.56573 -198.68073 497.0
-231.15947 -205.87642 515.0
-227.98946 -206.27617 516.0
-224.80539 -206.67593 517.0
-221.1795 -206.67593 517.0
-218.3952 -207.47545 519.0
-215.58287 -208.27496 521.0
-212.74248 -209.0745 523.0
-209.07448 -209.0745 523.0
-205.79926 -209.47424 524.0
-202.51001 -209.87401 525.0
-199.20674 -210.27376 526.0
-195.51772 -210.27376 526.0
-192.19339 -210.67352 527.0
-188.49736 -210.67352 527.0
-184.80135 -210.67352 527.0
-181.44896 -211.0733 528.0
-178.08258 -211.47305 529.0
-174.70213 -211.87282 530.0
-171.6303 -212.67233 532.0
-168.53041 -213.47185 534.0
-164.7853 -213.47185 534.0
-161.34174 -213.87161 535.0
-158.17873 -214.67113 537.0
-155.2752 -215.8704 540.0
-268.04962 -199.31894 490.0
-265.1531 -199.72572 491.0
-262.24255 -200.13248 492.0
-257.21402 -198.91217 489.0
-254.30348 -199.31894 490.0
-251.37892 -199.72572 491.0
-247.4304 -199.31894 490.0
-244.4918 -199.72572 491.0
-241.53922 -200.13248 492.0
-237.60474 -199.72572 491.0
-234.16118 -199.72572 491.0
-231.65741 -200.53926 493.0
-228.66272 -200.94603 494.0
-225.19814 -200.94603 494.0
-230.71063 -209.0815 514.0
-228.43129 -210.30182 517.0
-225.2402 -210.70859 518.0
-222.46294 -211.52214 520.0
-219.2368 -211.92892 521.0
-216.41043 -212.74246 523.0
-213.14925 -213.14923 524.0
-209.87401 -213.55602 525.0
-206.192 -213.55602 525.0
-202.89574 -213.96278 526.0
-199.58545 -214.36955 527.0
-195.88943 -214.36955 527.0
-192.55807 -214.77634 528.0
-188.85506 -214.77634 528.0
-185.15201 -214.77634 528.0
-181.79263 -215.18309 529.0
-178.08258 -215.18309 529.0
-174.70213 -215.58989 530.0
-171.95291 -216.8102 533.0
-168.53041 -217.21696 534.0
-165.09387 -217.62375 535.0
-161.94489 -218.4373 537.0
-265.86145 -201.10031 486.0
-262.45297 -201.10031 486.0
-259.04446 -201.10031 486.0
-255.63602 -201.10031 486.0
-252.74652 -201.5141 487.0
-249.843 -201.92789 488.0
-246.92543 -202.34169 489.0
-243.99388 -202.75548 490.0
-241.04828 -203.16927 491.0
-237.60474 -203.16927 491.0
-234.16118 -203.16927 491.0
-230.71764 -203.16927 491.0
-227.73697 -203.58305 492.0
-224.2864 -203.58305 492.0
-232.05719 -213.9277 517.0
-228.43129 -213.9277 517.0
-225.67503 -214.75528 519.0
-222.89075 -215.58284 521.0
-219.65761 -215.99663 522.0
-216.41043 -216.41043 523.0
-213.55602 -217.238 525.0
-210.27376 -217.6518 526.0
-206.58475 -217.6518 526.0
-203.28148 -218.06558 527.0
-199.96416 -218.47937 528.0
-196.63284 -218.89316 529.0
-192.92276 -218.89316 529.0
-188.85506 -218.47937 528.0
-185.50267 -218.89316 529.0
-181.79263 -218.89316 529.0
-178.4192 -219.30695 530.0
-175.03177 -219.72073 531.0
-172.27551 -220.9621 534.0
-168.53041 -220.9621 534.0

