ply
format ascii 1.0
comment made by @arthurmuchir
element vertex 1109
property float x
property float y
property float z
end_header
-125.6088 -104.67399 597.0
-121.62524 -104.84932 598.0
-129.57835 -108.6786 596.0
-125.39841 -108.6786 596.0
-121.421844 -108.860954 597.0
-117.23489 -108.860954 597.0
-132.86058 -112.10113 592.0
-129.14352 -112.47985 594.0
-125.188 -112.66921 595.0
-121.01507 -112.66921 595.0
-117.03852 -112.85858 596.0
-200.94603 -108.20172 551.0
-196.72401 -108.00534 550.0
-192.516 -107.80897 549.0
-140.21057 -115.46753 588.0
-136.31818 -115.66391 589.0
-132.86058 -116.25302 592.0
-128.7087 -116.25302 592.0
-124.767204 -116.44939 593.0
-120.81169 -116.64577 594.0
-117.23489 -117.234886 597.0
-200.21663 -111.65928 549.0
-195.65097 -111.2525 547.0
-191.81467 -111.2525 547.0
-187.97838 -111.2525 547.0
-144.08894 -119.38798 587.0
-139.97212 -119.38798 587.0
-136.08673 -119.59136 588.0
-132.1873 -119.794754 589.0
-128.49129 -120.20153 591.0
-124.767204 -120.60829 593.0
-120.81169 -120.81168 594.0
-199.12256 -114.8784 546.0
-195.29327 -114.8784 546.0
-191.464 -114.8784 546.0
-187.97838 -115.0888 547.0
-147.44832 -122.873604 584.0
-143.35254 -122.873604 584.0
-139.25676 -122.873604 584.0
-135.85529 -123.5048 587.0
-132.1873 -123.9256 589.0
-128.49129 -124.3464 591.0
-124.767204 -124.7672 593.0
-103.34849 -129.1856 614.0
-99.20361 -129.396 615.0
-95.044685 -129.6064 616.0
-198.39317 -118.27285 544.0
-194.57793 -118.27285 544.0
-190.76268 -118.27285 544.0
-187.63474 -118.70768 546.0
-150.76562 -126.31714 581.0
-147.19585 -126.75196 583.0
-143.35254 -126.96939 584.0
-139.25676 -126.96939 584.0
-135.62386 -127.40421 586.0
-131.96288 -127.839035 588.0
-128.27386 -128.27386 590.0
-111.41382 -132.83954 611.0
-107.304 -133.05695 612.0
-103.18017 -133.27437 613.0
-99.20361 -133.7092 615.0
-95.044685 -133.9266 616.0
-91.019035 -134.36143 618.0
-197.66379 -121.639244 542.0
-193.86256 -121.639244 542.0
-190.06134 -121.639244 542.0
-186.94743 -122.0881 544.0
-184.14209 -122.761375 547.0
-154.84038 -130.39188 581.0
-150.76562 -130.39188 581.0
-146.94336 -130.61632 582.0
-143.10707 -130.84074 583.0
-139.49521 -131.28958 585.0
-135.62386 -131.51402 586.0
-131.51402 -131.51402 586.0
-115.5096 -136.90025 610.0
-111.23147 -136.90025 610.0
-107.12867 -137.12468 611.0
-103.01185 -137.34912 612.0
-99.042305 -137.79796 614.0
-95.044685 -138.24683 616.0
-200.7216 -124.977585 540.0
-196.9344 -124.977585 540.0
-193.1472 -124.977585 540.0
-189.36 -124.977585 540.0
-186.60376 -125.671906 543.0
-183.80545 -126.366234 546.0
-162.98987 -134.46663 581.0
-158.36809 -134.00375 579.0
-154.30737 -134.00375 579.0
-150.50613 -134.23518 580.0
-146.69087 -134.46663 581.0
-143.35254 -135.16095 584.0
-139.49521 -135.39238 585.0
-136.08673 -136.0867 588.0
-119.00226 -140.25262 606.0
-114.94152 -140.48407 607.0
-110.866776 -140.7155 608.0
-106.95334 -141.17839 610.0
-102.84353 -141.40982 611.0
-98.881004 -141.87271 613.0
-200.7216 -128.76482 540.0
-196.5697 -128.52635 539.0
-193.1472 -128.76482 540.0
-189.36 -128.76482 540.0
-186.60376 -129.48018 543.0
-183.46881 -129.95708 545.0
-161.86774 -137.58759 577.0
-157.82104 -137.58759 577.0
-153.77435 -137.58759 577.0
-149.98714 -137.82603 578.0
-146.4384 -138.30295 580.0
-143.10707 -139.01831 583.0
-139.73366 -139.73367 586.0
-131.75249 -144.50273 606.0
-126.4504 -143.31047 601.0
-122.43878 -143.54892 602.0
-118.41313 -143.78738 603.0
-114.373436 -144.02582 604.0
-110.50208 -144.50273 606.0
-106.77801 -145.2181 609.0
-102.6752 -145.45654 610.0
-204.5088 -132.55202 540.0
-199.97821 -132.06107 538.0
-196.20502 -132.06107 538.0
-192.78952 -132.30655 539.0
-189.36 -132.55202 540.0
-186.60376 -133.2884 543.0
-182.79553 -133.2884 543.0
-165.33934 -141.14334 575.0
-161.30667 -141.14334 575.0
-157.54753 -141.38881 576.0
-153.50784 -141.38881 576.0
-149.72765 -141.63428 577.0
-146.4384 -142.37067 580.0
-142.8616 -142.86162 582.0
-130.01317 -146.78908 598.0
-126.240005 -147.28001 600.0
-122.032005 -147.28001 600.0
-118.02039 -147.52547 601.0
-114.184074 -148.01642 603.0
-110.50208 -148.7528 606.0
-106.77801 -149.48921 609.0
-204.1301 -136.08673 539.0
-199.60649 -135.58177 537.0
-195.84032 -135.58177 537.0
-192.43185 -135.83424 538.0
-189.36 -136.3392 540.0
-186.60376 -137.09665 543.0
-183.13219 -137.34914 544.0
-172.80154 -144.67105 573.0
-168.78288 -144.67105 573.0
-164.76425 -144.67105 573.0
-160.7456 -144.67105 573.0
-157.00049 -144.92352 574.0
-153.50784 -145.42848 576.0
-149.98714 -145.93344 578.0
-146.4384 -146.4384 580.0
-137.93826 -150.47809 596.0
-133.75829 -150.47809 596.0
-129.57835 -150.47809 596.0
-125.39841 -150.47809 596.0
-121.62524 -150.98305 598.0
-117.82401 -151.488 600.0
-113.99472 -151.99297 602.0
-110.50208 -153.00288 606.0
-208.296 -140.1264 540.0
-203.75136 -139.6074 538.0
-199.60649 -139.34792 537.0
-195.84032 -139.34792 537.0
-192.78952 -139.86691 539.0
-189.36 -140.1264 540.0
-186.60376 -140.90488 543.0
-183.46881 -141.42387 545.0
-176.51158 -148.43019 572.0
-172.49995 -148.43019 572.0
-168.48831 -148.43019 572.0
-164.4767 -148.43019 572.0
-160.7456 -148.68968 573.0
-157.00049 -148.94917 574.0
-153.50784 -149.46817 576.0
-149.98714 -149.98715 578.0
-146.4384 -150.50613 580.0
-141.40283 -153.87955 593.0
-137.0125 -153.62006 592.0
-133.085 -153.87955 593.0
-129.14352 -154.13905 594.0
-125.39841 -154.65802 596.0
-121.421844 -154.91751 597.0
-117.82401 -155.696 600.0
-212.47594 -144.1801 541.0
-208.296 -143.9136 540.0
-203.37265 -143.11409 537.0
-199.60649 -143.11409 537.0
-196.20502 -143.38058 538.0
-193.1472 -143.9136 540.0
-189.71068 -144.1801 541.0
-186.94743 -144.97963 544.0
-179.89201 -151.9088 570.0
-175.89441 -151.9088 570.0
-171.8968 -151.9088 570.0
-167.8992 -151.9088 570.0
-164.18915 -152.17531 571.0
-160.7456 -152.70831 573.0
-157.274 -153.24133 575.0
-153.77435 -153.77434 577.0
-149.98714 -154.04085 578.0
-144.82533 -157.23892 590.0
-140.68747 -157.23892 590.0
-136.5496 -157.23892 590.0
-132.86058 -157.77194 592.0
-128.9261 -158.03845 593.0
-125.6088 -159.10448 597.0
-121.62524 -159.37099 598.0
-215.8704 -147.7008 540.0
-211.69046 -147.42728 539.0
-207.52454 -147.15375 538.0
-203.37265 -146.88023 537.0
-199.60649 -146.88023 537.0
-196.5697 -147.42728 539.0
-193.1472 -147.7008 540.0
-190.06134 -148.24783 542.0
-186.94743 -148.79488 544.0
-190.53825 -154.81232 566.0
-182.92177 -155.08583 567.0
-179.2608 -155.35936 568.0
-175.27724 -155.35936 568.0
-171.29367 -155.35936 568.0
-167.60463 -155.63287 569.0
-163.90161 -155.9064 570.0
-160.46507 -156.45343 572.0
-157.00049 -157.00047 574.0
-153.50784 -157.54752 576.0
-152.84157 -161.10327 589.0
-148.45825 -160.82976 588.0
-144.33441 -160.82976 588.0
-140.21057 -160.82976 588.0
-136.31818 -161.10327 589.0
-132.86058 -161.92383 592.0
-128.9261 -162.19736 593.0
-125.6088 -163.29143 597.0
-121.62524 -163.56496 598.0
-94.58181 -167.66776 613.0
-90.28264 -167.66776 613.0
-86.12373 -167.94127 614.0
-82.08406 -168.48831 616.0
-215.07088 -150.92693 538.0
-210.90497 -150.6464 537.0
-207.13881 -150.6464 537.0
-203.75136 -150.92693 538.0
-200.7216 -151.48799 540.0
-196.9344 -151.48799 540.0
-193.86256 -152.04906 542.0
-198.12668 -158.50133 565.0
-194.16414 -158.50133 565.0
-190.20161 -158.50133 565.0
-186.23907 -158.50133 565.0
-182.27654 -158.50133 565.0
-178.31401 -158.50133 565.0
-174.66006 -158.78186 566.0
-170.9921 -159.0624 567.0
-167.31007 -159.34293 568.0
-163.61406 -159.62346 569.0
-160.18454 -160.18452 571.0
-157.00049 -161.02612 574.0
-153.50784 -161.58719 576.0
-152.32259 -164.67307 587.0
-147.95328 -164.39253 586.0
-143.84348 -164.39253 586.0
-139.97212 -164.67307 587.0
-136.31818 -165.23413 589.0
-132.86058 -166.07573 592.0
-128.9261 -166.35626 593.0
-125.6088 -167.4784 597.0
-106.77801 -170.84479 609.0
-102.50689 -170.84479 609.0
-98.39708 -171.12534 610.0
-94.27322 -171.40585 611.0
-90.28264 -171.96693 613.0
-86.12373 -172.24745 614.0
-81.950806 -172.52798 615.0
-218.84407 -154.70009 538.0
-214.67113 -154.41255 537.0
-210.90497 -154.41255 537.0
-207.52454 -154.70009 538.0
-204.5088 -155.27519 540.0
-200.7216 -155.27519 540.0
-197.66379 -155.85028 542.0
-194.22025 -156.13782 543.0
-196.72401 -161.31367 561.0
-192.78954 -161.31367 561.0
-189.1917 -161.60121 562.0
-185.5798 -161.88876 563.0
-181.95392 -162.1763 564.0
-178.31401 -162.46385 565.0
-174.35147 -162.46385 565.0
-170.69052 -162.7514 566.0
-167.01552 -163.03896 567.0
-163.32652 -163.32649 568.0
-160.18454 -164.18913 571.0
-157.00049 -165.05177 574.0
-154.57387 -166.77705 580.0
-151.5441 -167.92723 584.0
-147.44832 -167.92723 584.0
-143.598 -168.21478 585.0
-139.73366 -168.50233 586.0
-136.31818 -169.36497 589.0
-133.085 -170.51517 593.0
-114.373436 -173.67818 604.0
-110.50208 -174.25327 606.0
-106.42734 -174.54082 607.0
-102.17025 -174.54082 607.0
-98.23577 -175.1159 609.0
-94.11893 -175.40346 610.0
-90.13536 -175.97855 612.0
-85.98347 -176.2661 613.0
-222.20345 -158.17873 537.0
-218.4373 -158.17873 537.0
-214.27136 -157.88417 536.0
-210.90497 -158.17873 537.0
-207.52454 -158.4733 538.0
-204.5088 -159.06241 540.0
-201.09332 -159.35696 541.0
-198.02847 -159.94609 543.0
-194.93561 -160.53522 545.0
-194.62001 -163.48082 555.0
-191.41492 -164.06993 557.0
-188.5184 -164.95361 560.0
-184.92056 -165.24817 561.0
-181.63132 -165.8373 563.0
-177.99841 -166.13185 564.0
-174.35147 -166.4264 565.0
-170.38895 -166.4264 565.0
-167.01552 -167.01553 567.0
-163.61406 -167.60464 569.0
-160.18454 -168.19377 571.0
-156.72696 -168.7829 573.0
-154.30737 -170.55025 579.0
-151.02512 -171.43393 582.0
-147.44832 -172.02304 584.0
-143.598 -172.31761 585.0
-139.73366 -172.61218 586.0
-136.31818 -173.49585 589.0
-121.82862 -176.44145 599.0
-118.02039 -177.03058 601.0
-113.99472 -177.32513 602.0
-110.13738 -177.91425 604.0
-106.25201 -178.50337 606.0
-102.00192 -178.50337 606.0
-98.07447 -179.0925 608.0
-94.11893 -179.68161 610.0
-89.98808 -179.97618 611.0
-226.8112 -162.54803 539.0
-222.20345 -161.94489 537.0
-218.03052 -161.64333 536.0
-214.27136 -161.64333 536.0
-210.90497 -161.94489 537.0
-207.52454 -162.24646 538.0
-204.5088 -162.84961 540.0
-201.83673 -163.75433 543.0
-198.75787 -164.35747 545.0
-195.65097 -164.96062 547.0
-193.21735 -166.16692 551.0
-190.38396 -167.07164 554.0
-187.5085 -167.97635 557.0
-184.59094 -168.88107 560.0
-180.98607 -169.18265 561.0
-177.99841 -170.08737 564.0
-174.35147 -170.38895 565.0
-170.38895 -170.38895 565.0
-166.72096 -170.69052 566.0
-163.32652 -171.29366 568.0
-160.18454 -172.19838 571.0
-157.00049 -173.1031 574.0
-154.04086 -174.30939 578.0
-150.76562 -175.21411 581.0
-147.19585 -175.81726 583.0
-143.35254 -176.11884 584.0
-139.73366 -176.72197 586.0
-129.79576 -180.03928 597.0
-125.6088 -180.03928 597.0
-121.62524 -180.34087 598.0
-117.82401 -180.94402 600.0
-113.80535 -181.24557 601.0
-109.95504 -181.84872 603.0
-105.90134 -182.15031 604.0
-102.00192 -182.75345 606.0
-98.07447 -183.35658 608.0
-94.11893 -183.95975 610.0
-231.01921 -166.6368 540.0
-225.9696 -165.71104 537.0
-220.9621 -164.78528 534.0
-217.21698 -164.78528 534.0
-213.87161 -165.09387 535.0
-210.5122 -165.40247 536.0
-207.52454 -166.01964 538.0
-205.26625 -167.25398 542.0
-202.20845 -167.87115 544.0
-198.75787 -168.17975 545.0
-196.00865 -169.1055 548.0
-193.21735 -170.03127 551.0
-190.38396 -170.95702 554.0
-187.17184 -171.57419 556.0
-183.93167 -172.19136 558.0
-180.98607 -173.11711 561.0
-177.6828 -173.7343 563.0
-174.35147 -174.35147 565.0
-170.38895 -174.35147 565.0
-166.72096 -174.66006 566.0
-163.61406 -175.58582 569.0
-160.18454 -176.20299 571.0
-157.00049 -177.12875 574.0
-153.50784 -177.74593 576.0
-150.50613 -178.98027 580.0
-147.19585 -179.90604 583.0
-143.598 -180.5232 585.0
-141.40283 -182.9919 593.0
-137.24394 -182.9919 593.0
-133.085 -182.9919 593.0
-129.14352 -183.30048 594.0
-125.188 -183.60907 595.0
-121.21846 -183.91766 596.0
-117.62764 -184.84341 599.0
-113.616 -185.152 600.0
-109.59035 -185.46059 601.0
-106.25201 -187.00352 606.0
-102.17025 -187.3121 607.0
-97.913155 -187.3121 607.0
-229.73576 -169.4772 537.0
-224.70721 -168.5304 534.0
-220.9621 -168.5304 534.0
-217.21698 -168.5304 534.0
-213.47183 -168.5304 534.0
-210.5122 -169.1616 536.0
-207.52454 -169.7928 538.0
-204.5088 -170.424 540.0
-201.83673 -171.3708 543.0
-198.75787 -172.002 545.0
-195.65097 -172.6332 547.0
-193.21735 -173.8956 551.0
-190.38396 -174.8424 554.0
-186.8352 -175.158 555.0
-183.93167 -176.1048 558.0
-180.98607 -177.0516 561.0
-177.99841 -177.9984 564.0
-174.35147 -178.314 565.0
-170.38895 -178.314 565.0
-167.01552 -178.9452 567.0
-163.32652 -179.2608 568.0
-160.18454 -180.2076 571.0
-156.72696 -180.8388 573.0
-153.24133 -181.47 575.0
-149.98714 -182.4168 578.0
-147.19585 -183.9948 583.0
-144.82533 -186.204 590.0
-140.92593 -186.5196 591.0
-136.78105 -186.5196 591.0
-132.86058 -186.8352 592.0
-128.7087 -186.8352 592.0
-124.97761 -187.4664 594.0
-121.21846 -188.0976 596.0
-117.43127 -188.7288 598.0
-113.616 -189.36 600.0
-109.59035 -189.6756 601.0
-233.50192 -173.24335 537.0
-228.45232 -172.27551 534.0
-224.70721 -172.27551 534.0
-220.5483 -171.95291 533.0
-217.21698 -172.27551 534.0
-213.47183 -172.27551 534.0
-210.11948 -172.59813 535.0
-207.13881 -173.24335 537.0
-204.5088 -174.2112 540.0
-201.83673 -175.17903 543.0
-199.12256 -176.14688 546.0
-196.00865 -176.7921 548.0
-193.21735 -177.75993 551.0
-190.38396 -178.72778 554.0
-186.8352 -179.0504 555.0
-183.93167 -180.01823 558.0
-180.98607 -180.98608 561.0
-178.31401 -182.27654 565.0
-174.35147 -182.27654 565.0
-170.38895 -182.27654 565.0
-167.01552 -182.92175 567.0
-163.32652 -183.24437 568.0
-159.904 -183.8896 570.0
-156.72696 -184.85744 573.0
-153.24133 -185.50266 575.0
-149.72765 -186.14789 577.0
-147.19585 -188.08356 583.0
-144.08894 -189.37402 587.0
-140.21057 -189.69664 588.0
-136.31818 -190.01924 589.0
-132.63615 -190.66447 591.0
-128.7087 -190.98709 592.0
-124.97761 -191.63232 594.0
-121.21846 -192.27754 596.0
-117.23489 -192.60016 597.0
-233.0671 -176.67989 536.0
-228.45232 -176.02063 534.0
-224.2864 -175.69101 533.0
-220.5483 -175.69101 533.0
-216.81021 -175.69101 533.0
-213.07208 -175.69101 533.0
-209.72672 -176.02063 534.0
-207.13881 -177.00952 537.0
-204.5088 -177.99838 540.0
-201.83673 -178.98727 543.0
-199.12256 -179.97615 546.0
-196.36632 -180.96504 549.0
-193.21735 -181.62428 551.0
-190.38396 -182.61316 554.0
-187.17184 -183.27243 556.0
-184.2613 -184.26129 559.0
-181.3087 -185.25018 562.0
-178.31401 -186.23906 565.0
-174.35147 -186.23906 565.0
-170.69052 -186.56868 566.0
-167.01552 -186.89832 567.0
-163.32652 -187.22794 568.0
-159.62347 -187.55757 569.0
-156.45345 -188.54645 572.0
-152.97485 -189.20569 574.0
-149.72765 -190.19458 577.0
-146.69087 -191.51308 581.0
-143.35254 -192.50197 584.0
-139.73366 -193.16122 586.0
-136.08673 -193.82047 588.0
-132.1873 -194.1501 589.0
-128.7087 -195.13898 592.0
-124.97761 -195.79823 594.0
-236.38441 -180.10239 535.0
-232.63228 -180.10239 535.0
-227.16888 -178.75583 531.0
-223.44481 -178.75583 531.0
-220.13452 -179.09247 532.0
-216.81021 -179.42911 533.0
-213.07208 -179.42911 533.0
-209.72672 -179.76575 534.0
-207.13881 -180.77567 537.0
-204.5088 -181.78558 540.0
-201.83673 -182.7955 543.0
-199.12256 -183.80544 546.0
-196.36632 -184.81535 549.0
-193.91867 -186.16191 553.0
-190.38396 -186.49855 554.0
-187.5085 -187.50847 557.0
-184.92056 -188.85504 561.0
-181.3087 -189.19167 562.0
-178.31401 -190.20158 565.0
-174.35147 -190.20158 565.0
-170.69052 -190.53824 566.0
-167.01552 -190.87486 567.0
-163.32652 -191.2115 568.0
-159.62347 -191.54816 569.0
-156.17993 -192.22144 571.0
-152.70833 -192.8947 573.0
-149.72765 -194.24127 577.0
-146.69087 -195.58783 581.0
-143.35254 -196.59775 584.0
-139.73366 -197.27103 586.0
-136.08673 -197.9443 588.0
-132.1873 -198.28096 589.0
-128.7087 -199.29086 592.0
-275.95364 -185.22916 539.0
-270.65857 -184.1982 536.0
-273.87067 -189.00934 550.0
-270.01334 -189.00934 550.0
-267.60776 -190.04031 553.0
-242.82967 -185.91647 541.0
-236.38441 -183.85454 535.0
-232.19743 -183.5109 534.0
-227.16888 -182.47993 531.0
-223.44481 -182.47993 531.0
-220.13452 -182.8236 532.0
-216.40343 -182.8236 532.0
-213.07208 -183.16724 533.0
-210.11948 -183.85454 535.0
-207.52454 -184.88551 538.0
-204.88754 -185.91647 541.0
-202.20845 -186.94742 544.0
-199.12256 -187.63474 546.0
-196.72401 -189.00934 550.0
-194.26933 -190.38396 554.0
-190.7276 -190.72762 555.0
-188.18178 -192.10222 559.0
-184.92056 -192.78954 561.0
-181.3087 -193.1332 562.0
-178.31401 -194.16414 565.0
-174.35147 -194.16414 565.0
-170.69052 -194.5078 566.0
-167.01552 -194.85144 567.0
-163.32652 -195.19511 568.0
-159.62347 -195.53877 569.0
-155.9064 -195.88242 570.0
-152.70833 -196.91338 573.0
-149.72765 -198.288 577.0
-146.69087 -199.6626 581.0
-143.35254 -200.69357 584.0
-139.73366 -201.38087 586.0
-281.43106 -185.15201 528.0
-279.832 -186.55467 532.0
-276.6199 -186.90533 533.0
-272.8818 -186.90533 533.0
-269.64865 -187.25601 534.0
-266.4015 -187.60667 535.0
-270.50427 -193.21735 551.0
-266.63995 -193.21735 551.0
-262.77557 -193.21735 551.0
-258.44135 -192.86667 550.0
-253.65825 -192.16534 548.0
-249.81494 -192.16534 548.0
-242.82967 -189.71068 541.0
-236.82625 -187.95734 536.0
-232.19743 -187.25601 534.0
-227.5967 -186.55467 532.0
-223.44481 -186.20401 531.0
-220.13452 -186.55467 532.0
-216.81021 -186.90533 533.0
-213.47183 -187.25601 534.0
-210.5122 -187.95734 536.0
-207.91028 -189.00934 539.0
-205.26625 -190.06134 542.0
-202.58014 -191.11334 545.0
-199.48726 -191.81467 547.0
-197.43936 -193.56801 552.0
-194.26933 -194.26935 554.0
-191.75856 -195.67201 558.0
-188.5184 -196.37334 560.0
-184.92056 -196.72401 561.0
-181.63132 -197.42534 563.0
-178.31401 -198.12668 565.0
-174.35147 -198.12668 565.0
-170.38895 -198.12668 565.0
-166.72096 -198.47734 566.0
-163.03896 -198.82802 567.0
-159.62347 -199.52934 569.0
-156.17993 -200.23067 571.0
-152.70833 -200.932 573.0
-149.46815 -201.98401 576.0
-146.4384 -203.38667 580.0
-143.10707 -204.43867 583.0
-287.74307 -188.13968 526.0
-284.59406 -188.49736 527.0
-280.89804 -188.49736 527.0
-277.728 -188.85504 528.0
-274.54398 -189.21274 529.0
-270.83392 -189.21274 529.0
-267.12384 -189.21274 529.0
-264.40967 -189.92809 531.0
-268.54056 -195.65097 547.0
-264.70425 -195.65097 547.0
-261.34488 -196.00865 548.0
-257.03165 -195.65097 547.0
-252.73248 -195.29329 546.0
-247.53561 -194.22025 543.0
-241.93196 -192.78954 539.0
-236.82625 -191.71648 536.0
-232.19743 -191.00113 534.0
-228.02452 -190.64345 533.0
-223.44481 -189.92809 531.0
-220.13452 -190.28577 532.0
-216.81021 -190.64345 533.0
-213.47183 -191.00113 534.0
-210.5122 -191.71648 536.0
-208.296 -193.1472 540.0
-205.26625 -193.86256 542.0
-202.58014 -194.9356 545.0
-199.85194 -196.00865 548.0
-198.15472 -198.15472 554.0
-194.97067 -198.87009 556.0
-191.75856 -199.58545 558.0
-188.5184 -200.3008 560.0
-185.25018 -201.01616 562.0
-181.63132 -201.37384 563.0
-177.99841 -201.73154 564.0
-174.35147 -202.0892 565.0
-170.38895 -202.0892 565.0
-166.72096 -202.44688 566.0
-163.03896 -202.80457 567.0
-159.34294 -203.16225 568.0
-155.9064 -203.8776 570.0
-152.44182 -204.59297 572.0
-149.46815 -206.02368 576.0
-145.68097 -206.38136 577.0
-142.1252 -207.09673 579.0
-111.34367 -210.31584 588.0
-287.196 -191.464 525.0
-283.514 -191.464 525.0
-279.832 -191.464 525.0
-277.202 -192.19339 527.0
-273.50598 -192.19339 527.0
-269.29797 -191.82869 526.0
-265.104 -191.464 525.0
-263.4138 -192.92278 529.0
-268.04962 -199.12256 546.0
-263.2525 -198.39317 544.0
-259.91415 -198.75787 545.0
-255.62196 -198.39317 544.0
-251.34386 -198.02849 543.0
-246.16801 -196.9344 540.0
-242.38081 -196.9344 540.0
-237.2681 -195.84032 537.0
-232.19743 -194.74625 534.0
-228.02452 -194.38156 533.0
-223.8656 -194.01686 532.0
-220.13452 -194.01686 532.0
-216.81021 -194.38156 533.0
-213.47183 -194.74625 534.0
-210.90497 -195.84032 537.0
-208.296 -196.9344 540.0
-206.0237 -198.39317 544.0
-202.95184 -199.12256 546.0
-200.94603 -200.94603 551.0
-198.15472 -202.0401 554.0
-195.32133 -203.13419 557.0
-191.75856 -203.49889 558.0
-188.5184 -204.22827 560.0
-185.25018 -204.95766 562.0
-181.3087 -204.95766 562.0
-177.6828 -205.32236 563.0
-174.35147 -206.05173 565.0
-170.38895 -206.05173 565.0
-166.4264 -206.05173 565.0
-162.7514 -206.41643 566.0
-159.34294 -207.14581 568.0
-155.63289 -207.51051 569.0
-152.44182 -208.60458 572.0
-149.20868 -209.69867 575.0
-145.42848 -210.06337 576.0
-141.87975 -210.79276 578.0
-138.30293 -211.52213 580.0
-134.69809 -212.25151 582.0
-130.84074 -212.61621 583.0
-126.96938 -212.98091 584.0
-122.873604 -212.98091 584.0
-118.777824 -212.98091 584.0
-115.27116 -214.07498 587.0
-111.34367 -214.43968 588.0
-107.03749 -214.07498 587.0
-103.096 -214.43968 588.0
-98.97217 -214.43968 588.0
-95.009636 -214.80438 589.0
-91.187355 -215.53377 591.0
-284.46082 -193.28748 520.0
-281.3539 -193.65918 521.0
-277.69995 -193.65918 521.0
-273.52002 -193.28748 520.0
-270.39206 -193.65918 521.0
-266.73813 -193.65918 521.0
-263.5891 -194.03088 522.0
-269.8871 -201.46501 542.0
-265.59494 -201.0933 541.0
-261.80075 -201.0933 541.0
-258.48343 -201.46501 542.0
-254.2123 -201.0933 541.0
-250.41808 -201.0933 541.0
-246.16801 -200.7216 540.0
-242.38081 -200.7216 540.0
-237.70995 -199.9782 538.0
-232.19743 -198.49135 534.0
-228.02452 -198.11964 533.0
-224.2864 -198.11964 533.0
-220.5483 -198.11964 533.0
-217.21698 -198.49135 534.0
-213.87161 -198.86307 535.0
-210.90497 -199.60648 537.0
-208.68175 -201.0933 541.0
-206.4024 -202.58012 545.0
-203.69527 -203.69525 548.0
-201.67542 -205.55379 553.0
-198.15472 -205.92549 554.0
-195.32133 -207.04062 557.0
-191.75856 -207.41232 558.0
-188.18178 -207.78403 559.0
-184.59094 -208.15573 560.0
-180.98607 -208.52744 561.0
-177.3672 -208.89914 562.0
-173.7343 -209.27084 563.0
-170.08739 -209.64255 564.0
-166.4264 -210.01427 565.0
-162.46387 -210.01427 565.0
-159.06241 -210.75768 567.0
-155.35936 -211.1294 568.0
-151.9088 -211.8728 570.0
-148.68968 -212.98792 573.0
-145.42848 -214.10304 576.0
-141.63428 -214.47475 577.0
-137.82603 -214.84645 578.0
-134.23521 -215.58986 580.0
-130.61632 -216.33327 582.0
-126.751976 -216.70499 583.0
-122.873604 -217.07668 584.0
-118.777824 -217.07668 584.0
-114.87841 -217.4484 585.0
-110.7756 -217.4484 585.0
-106.85515 -217.8201 586.0
-102.92067 -218.19182 587.0
-98.97217 -218.56354 588.0
-95.009636 -218.93523 589.0
-91.34165 -220.05035 592.0
-282.8197 -195.79823 517.0
-278.65378 -195.41953 516.0
-275.03488 -195.41953 516.0
-271.94202 -195.79823 517.0
-268.31613 -195.79823 517.0
-265.2022 -196.17696 518.0
-262.57922 -196.9344 520.0
-268.8912 -204.5088 540.0
-265.104 -204.5088 540.0
-261.3168 -204.5088 540.0
-257.5296 -204.5088 540.0
-253.74242 -204.5088 540.0
-249.95522 -204.5088 540.0
-245.71214 -204.13007 539.0
-242.38081 -204.5088 540.0
-237.70995 -203.75136 538.0
-232.63228 -202.6152 535.0
-228.02452 -201.85776 533.0
-224.2864 -201.85776 533.0
-220.9621 -202.23647 534.0
-217.21698 -202.23647 534.0
-214.27136 -202.99391 536.0
-211.69046 -204.13007 539.0
-209.06747 -205.26624 542.0
-206.78114 -206.78111 546.0
-204.43867 -208.296 550.0
-201.67542 -209.43216 553.0
-198.15472 -209.81087 554.0
-194.97067 -210.56831 556.0
-191.41492 -210.94704 557.0
-187.84514 -211.32576 558.0
-184.2613 -211.70447 559.0
-180.66347 -212.0832 560.0
-177.0516 -212.46191 561.0
-173.42572 -212.84064 562.0
-169.7858 -213.21935 563.0
-166.4264 -213.9768 565.0
-162.46387 -213.9768 565.0
-158.50134 -213.9768 565.0
-155.08585 -214.73424 567.0
-151.9088 -215.8704 570.0
-148.68968 -217.00656 573.0
-145.17601 -217.764 575.0
-141.38881 -218.1427 576.0
-137.58759 -218.52144 577.0
-134.00377 -219.27887 579.0
-130.39189 -220.0363 581.0
-126.31715 -220.0363 581.0
-122.452805 -220.41504 582.0
-118.777824 -221.17247 584.0
-114.68204 -221.17247 584.0
-110.7756 -221.5512 585.0
-106.85515 -221.9299 586.0
-102.92067 -222.30864 587.0
-98.97217 -222.68736 588.0
-95.009636 -223.06607 589.0
-91.187355 -223.8235 591.0
-279.53745 -197.10973 511.0
-277.0337 -197.88118 513.0
-273.96884 -198.26692 514.0
-270.89 -198.65266 515.0
-267.79715 -199.03839 516.0
-264.69022 -199.42413 517.0
-262.07425 -200.19559 519.0
-267.89532 -207.52454 538.0
-263.6312 -207.1388 537.0
-260.34897 -207.52454 538.0
-257.0527 -207.91026 539.0
-252.80261 -207.52454 538.0
-249.02945 -207.52454 538.0
-244.80042 -207.1388 537.0
-241.03426 -207.1388 537.0
-237.2681 -207.1388 537.0
-232.63228 -206.36732 535.0
-228.45232 -205.98158 534.0
-224.70721 -205.98158 534.0
-220.9621 -205.98158 534.0
-217.62375 -206.36732 535.0
-214.67113 -207.1388 537.0
-212.0832 -208.29599 540.0
-209.83894 -209.83893 544.0
-207.15985 -210.99612 547.0
-204.43867 -212.15334 550.0
-201.31071 -212.92479 552.0
-198.15472 -213.69626 554.0
-194.26933 -213.69626 554.0
-191.07127 -214.46773 556.0
-187.5085 -214.85345 557.0
-183.60205 -214.85345 557.0
-180.34085 -215.62492 559.0
-176.73601 -216.01067 560.0
-173.11714 -216.3964 561.0
-169.48422 -216.78212 562.0
-165.54272 -216.78212 562.0
-162.46387 -217.93932 565.0
-158.50134 -217.93932 565.0
-155.08585 -218.7108 567.0
-151.64232 -219.48225 569.0
-148.43019 -220.63947 572.0
-144.92352 -221.41092 574.0
-141.38881 -222.1824 576.0
-137.58759 -222.56812 577.0
-133.77234 -222.95386 578.0
-130.16747 -223.72531 580.0
-126.09974 -223.72531 580.0
-122.2424 -224.11105 581.0
-118.37105 -224.4968 582.0
-114.485664 -224.88252 583.0
-110.7756 -225.654 585.0
-106.85515 -226.03972 586.0
-103.096 -226.8112 588.0
-98.97217 -226.8112 588.0
-95.009636 -227.19691 589.0
-91.187355 -227.9684 591.0
-278.99042 -200.30078 510.0
-275.95364 -200.69354 511.0
-273.43585 -201.47902 513.0
-270.364 -201.87178 514.0
-266.75916 -201.87178 514.0
-264.69022 -203.05 517.0
-261.06433 -203.05 517.0
-267.39737 -210.90495 537.0
-263.1403 -210.51219 536.0
-259.38113 -210.51219 536.0
-256.0989 -210.90495 537.0
-252.33272 -210.90495 537.0
-248.56656 -210.90495 537.0
-244.80042 -210.90495 537.0
-241.03426 -210.90495 537.0
-236.82625 -210.51219 536.0
-232.63228 -210.11946 535.0
-228.45232 -209.7267 534.0
-225.128 -210.11946 535.0
-221.37587 -210.11946 535.0
-218.4373 -210.90495 537.0
-215.47063 -211.69044 539.0
-212.47594 -212.47592 541.0
-210.22467 -214.04692 545.0
-207.15985 -214.83241 547.0
-204.43867 -216.01067 550.0
-200.94603 -216.40341 551.0
-197.79706 -217.18889 553.0
-194.26933 -217.58165 554.0
-190.38396 -217.58165 554.0
-187.17184 -218.36713 556.0
-183.60205 -218.75989 557.0
-180.01825 -219.15263 558.0
-176.42041 -219.54536 559.0
-172.80853 -219.93811 560.0
-169.18265 -220.33087 561.0
-165.54272 -220.72362 562.0
-161.88878 -221.11635 563.0
-158.50134 -221.90186 565.0
-154.81233 -222.29462 566.0
-151.9088 -223.86557 570.0
-148.43019 -224.65108 572.0
-144.92352 -225.43657 574.0
-141.14334 -225.82932 575.0
-137.34912 -226.22208 576.0
-133.77234 -227.00755 578.0
-129.94304 -227.4003 579.0
-126.09974 -227.79306 580.0
-122.452805 -228.57854 582.0
-118.37105 -228.57854 582.0
-114.68204 -229.36404 584.0
-110.7756 -229.75677 585.0
-106.85515 -230.14952 586.0
-102.92067 -230.54228 587.0
-99.14049 -231.32776 589.0
-277.89633 -203.0781 508.0
-275.4136 -203.87761 510.0
-272.3698 -204.27736 511.0
-268.786 -204.27736 511.0
-265.2022 -204.27736 511.0
-261.61838 -204.27736 511.0
-259.54944 -205.47665 514.0
-255.44666 -205.07689 513.0
-262.15842 -213.47185 534.0
-258.4133 -213.47185 534.0
-255.14508 -213.87161 535.0
-251.39294 -213.87161 535.0
-247.64081 -213.87161 535.0
-244.34454 -214.27136 536.0
-241.03426 -214.67113 537.0
-236.82625 -214.27136 536.0
-233.0671 -214.27136 536.0
-229.30794 -214.27136 536.0
-225.54881 -214.27136 536.0
-221.78967 -214.27136 536.0
-218.84407 -215.07089 538.0
-215.8704 -215.8704 540.0
-213.26144 -217.0697 543.0
-210.22467 -217.8692 545.0
-207.15985 -218.66873 547.0
-204.43867 -219.868 550.0
-200.94603 -220.26776 551.0
-197.08168 -220.26776 551.0
-193.91867 -221.06729 553.0
-190.38396 -221.46706 554.0
-186.49858 -221.46706 554.0
-182.94281 -221.8668 555.0
-179.69563 -222.66634 557.0
-176.10481 -223.0661 558.0
-172.49995 -223.46587 559.0
-169.18265 -224.26537 561.0
-165.54272 -224.66513 562.0
-162.17632 -225.46466 564.0
-158.50134 -225.8644 565.0
-155.08585 -226.66393 567.0
-151.9088 -227.8632 570.0
-148.68968 -229.0625 573.0
-144.92352 -229.46227 574.0
-141.38881 -230.26176 576.0
-137.58759 -230.66153 577.0
-133.77234 -231.0613 578.0
-130.16747 -231.8608 580.0
-126.31715 -232.26056 581.0
-122.66321 -233.06009 583.0
-118.777824 -233.45985 584.0
-114.68204 -233.45985 584.0
-110.7756 -233.8596 585.0
-106.85515 -234.25937 586.0
-276.25522 -205.42055 505.0
-273.2535 -205.82732 506.0
-270.23776 -206.23409 507.0
-266.682 -206.23409 507.0
-263.64523 -206.64085 508.0
-260.59445 -207.04764 509.0
-258.03458 -207.86118 511.0
-254.45074 -207.86118 511.0
-261.17654 -216.40341 532.0
-257.92935 -216.8102 533.0
-254.19127 -216.8102 533.0
-250.92303 -217.21696 534.0
-247.17792 -217.21696 534.0
-244.34454 -218.03052 536.0
-241.03426 -218.4373 537.0
-237.2681 -218.4373 537.0
-233.50192 -218.4373 537.0
-229.73576 -218.4373 537.0
-226.39041 -218.84407 538.0
-223.03102 -219.25082 539.0
-219.65761 -219.6576 540.0
-216.66992 -220.47116 542.0
-213.65419 -221.28471 544.0
-210.61041 -222.09824 546.0
-207.15985 -222.505 547.0
-204.06699 -223.31856 549.0
-200.58134 -223.72534 550.0
-197.08168 -224.13213 551.0
-193.91867 -224.94568 553.0
-190.38396 -225.35242 554.0
-186.49858 -225.35242 554.0
-182.61316 -225.35242 554.0
-179.37302 -226.16597 556.0
-176.10481 -226.97954 558.0
-172.49995 -227.3863 559.0
-169.18265 -228.19983 561.0
-166.13184 -229.42017 564.0
-162.46387 -229.82693 565.0
-158.50134 -229.82693 565.0
-155.35936 -231.04727 568.0
-151.9088 -231.8608 570.0
-148.43019 -232.67435 572.0
-144.92352 -233.4879 574.0
-141.87975 -235.11499 578.0
-138.30293 -235.92854 580.0
-134.23521 -235.92854 580.0
-274.6141 -207.7209 502.0
-271.63342 -208.13469 503.0
-268.63873 -208.54848 504.0
-265.104 -208.54848 504.0
-262.60727 -209.37605 506.0
-259.5705 -209.78984 507.0
-256.51968 -210.20364 508.0
-263.91174 -219.30695 530.0
-260.19467 -219.30695 530.0
-257.44547 -220.13452 532.0
-254.19127 -220.54831 533.0
-250.92303 -220.9621 534.0
-247.64081 -221.37585 535.0
-244.80042 -222.20343 537.0
-241.4831 -222.61722 538.0
-238.15178 -223.031 539.0
-234.80641 -223.4448 540.0
-231.01921 -223.4448 540.0
-227.23201 -223.4448 540.0
-223.44481 -223.4448 540.0
-220.06439 -223.85858 541.0
-217.06967 -224.68617 543.0
-213.65419 -225.09996 544.0
-210.61041 -225.92754 546.0
-207.15985 -226.34132 547.0
-203.69527 -226.75511 548.0
-200.58134 -227.58266 550.0
-196.72401 -227.58266 550.0
-193.56801 -228.41023 552.0
-190.0403 -228.82402 553.0
-186.49858 -229.23781 554.0
-182.61316 -229.23781 554.0
-179.37302 -230.06538 556.0
-176.10481 -230.89296 558.0
-172.80853 -231.72054 560.0
-170.08739 -233.3757 564.0
-166.4264 -233.78946 565.0
-162.46387 -233.78946 565.0
-158.78188 -234.20325 566.0

