ply
format ascii 1.0
comment made by @arthurmuchir
element vertex 912
property float x
property float y
property float z
end_header
-84.30027 -113.80538 601.0
-80.08526 -113.80538 601.0
-75.870255 -113.80538 601.0
-71.65522 -113.80538 601.0
-87.92616 -117.234886 597.0
-83.87947 -117.43126 598.0
-79.818756 -117.62764 599.0
-75.870255 -118.02038 601.0
-71.77445 -118.21675 602.0
-95.97748 -121.01507 595.0
-91.80453 -121.01507 595.0
-87.6316 -121.01507 595.0
-83.59894 -121.21846 596.0
-79.552246 -121.421844 597.0
-75.74401 -122.032 600.0
-71.77445 -122.438774 602.0
-99.81377 -124.7672 593.0
-95.65487 -124.7672 593.0
-91.49594 -124.7672 593.0
-87.337036 -124.7672 593.0
-83.45867 -125.188 595.0
-79.552246 -125.6088 597.0
-75.61777 -126.0296 599.0
-103.79734 -128.7087 592.0
-99.47713 -128.49127 591.0
-95.33225 -128.49127 591.0
-91.34165 -128.7087 592.0
-87.337036 -128.9261 593.0
-83.45867 -129.36093 595.0
-79.552246 -129.79575 597.0
-111.533035 -132.18729 589.0
-107.58453 -132.41173 590.0
-103.27134 -132.18729 589.0
-99.14049 -132.18729 589.0
-95.009636 -132.18729 589.0
-91.187355 -132.63615 591.0
-87.337036 -133.085 593.0
-83.59894 -133.75829 596.0
-115.46754 -136.0867 588.0
-111.34367 -136.0867 588.0
-107.21984 -136.0867 588.0
-103.096 -136.0867 588.0
-98.97217 -136.0867 588.0
-95.170944 -136.54959 590.0
-91.34165 -137.01247 592.0
-87.337036 -137.24391 593.0
-119.38798 -139.97212 587.0
-115.07479 -139.73367 586.0
-110.7756 -139.49521 585.0
-106.672806 -139.49521 585.0
-102.92067 -139.97212 587.0
-98.97217 -140.21057 588.0
-95.170944 -140.68748 590.0
-91.49594 -141.40283 593.0
-82.75033 -148.07953 621.0
-78.64753 -148.55644 623.0
-74.39744 -148.79489 624.0
-122.873604 -143.35254 584.0
-118.777824 -143.35254 584.0
-114.485664 -143.10707 583.0
-110.58624 -143.35254 584.0
-106.672806 -143.598 585.0
-102.92067 -144.08894 587.0
-98.97217 -144.33441 588.0
-95.170944 -144.82535 590.0
-86.68481 -151.69841 618.0
-82.61707 -152.18935 620.0
-78.39506 -152.43481 621.0
-74.278206 -152.92574 623.0
-156.17993 -144.16608 571.0
-150.84279 -142.90369 566.0
-146.09474 -142.14624 563.0
-141.64128 -141.64128 561.0
-136.9704 -140.88385 558.0
-131.8647 -139.62144 553.0
-127.75489 -139.36897 552.0
-125.00565 -140.63136 557.0
-121.09923 -140.63136 557.0
-122.452805 -146.94336 582.0
-118.167656 -146.69089 581.0
-114.28929 -146.94336 582.0
-110.20752 -146.94336 582.0
-106.49045 -147.44833 584.0
-103.096 -148.45825 588.0
-99.14049 -148.71072 589.0
-90.28264 -154.77025 613.0
-86.12373 -155.02274 614.0
-81.950806 -155.2752 615.0
-78.14257 -156.28513 619.0
-74.03975 -156.79008 621.0
-164.18915 -148.1707 571.0
-159.62347 -147.6517 569.0
-154.81233 -146.87323 566.0
-150.30978 -146.35425 564.0
-145.31627 -145.31627 560.0
-140.63136 -144.5378 557.0
-135.98854 -143.75931 554.0
-131.14934 -142.72133 550.0
-126.82913 -142.20235 548.0
-122.98581 -142.20235 548.0
-121.09923 -144.5378 557.0
-117.1928 -144.5378 557.0
-117.96427 -150.50613 580.0
-114.092926 -150.76562 581.0
-110.20752 -151.02512 582.0
-106.672806 -151.8036 585.0
-103.096 -152.58208 588.0
-93.96464 -158.03145 609.0
-89.840805 -158.29092 610.0
-85.8432 -158.80992 612.0
-81.81756 -159.3289 614.0
-78.016335 -160.36688 618.0
-175.27724 -151.3758 568.0
-171.29367 -151.3758 568.0
-167.31007 -151.3758 568.0
-163.03896 -151.10928 567.0
-158.50134 -150.57628 565.0
-154.5388 -150.57628 565.0
-149.77676 -149.77673 562.0
-145.05676 -148.97722 559.0
-140.37889 -148.1777 556.0
-128.2879 -143.38058 538.0
-125.44049 -144.44661 542.0
-122.536964 -145.51263 546.0
-120.01216 -147.11168 552.0
-122.2424 -154.84038 581.0
-118.167656 -154.84038 581.0
-114.092926 -154.84038 581.0
-110.39687 -155.37338 583.0
-106.85515 -156.17291 586.0
-105.200005 -159.904 600.0
-101.49697 -160.70352 603.0
-97.42924 -160.97002 604.0
-93.65605 -161.76955 607.0
-89.69352 -162.30255 609.0
-85.702934 -162.83557 611.0
-81.6843 -163.36859 613.0
-77.63761 -163.9016 615.0
-182.27654 -154.5388 565.0
-178.31401 -154.5388 565.0
-174.96864 -155.08583 567.0
-171.59525 -155.63287 569.0
-161.12431 -149.61543 547.0
-157.28802 -149.61543 547.0
-158.50134 -154.5388 565.0
-154.5388 -154.5388 565.0
-150.57628 -154.5388 565.0
-142.72133 -150.436 550.0
-139.87392 -151.53008 554.0
-131.07921 -146.05968 534.0
-127.33409 -146.05968 534.0
-123.82041 -146.3332 535.0
-121.1904 -147.7008 540.0
-125.01267 -157.274 575.0
-118.57443 -159.46216 583.0
-114.485664 -159.46216 583.0
-110.58624 -159.73567 584.0
-109.043304 -163.56496 598.0
-105.200005 -164.112 600.0
-101.160324 -164.38551 601.0
-97.26794 -164.93256 603.0
-93.501755 -165.75311 606.0
-89.39896 -166.02664 607.0
-85.56267 -166.8472 610.0
-81.55105 -167.39424 612.0
-178.98727 -152.32959 543.0
-175.17905 -152.32959 543.0
-171.6864 -152.61012 544.0
-168.17973 -152.89066 545.0
-164.65904 -153.17119 546.0
-160.82976 -153.17119 546.0
-157.00047 -153.17119 546.0
-153.1712 -153.17119 546.0
-149.61545 -153.45174 547.0
-145.77916 -153.45174 547.0
-142.46184 -154.01279 549.0
-138.864 -154.29333 550.0
-129.6064 -148.12158 528.0
-125.903366 -148.12158 528.0
-122.43177 -148.40213 529.0
-120.51712 -150.6464 537.0
-124.36043 -160.46506 572.0
-112.6692 -166.91733 595.0
-108.49627 -166.91733 595.0
-104.674 -167.4784 597.0
-100.82369 -168.03946 599.0
-96.78401 -168.31999 600.0
-93.03887 -169.16159 603.0
-89.25168 -170.00319 606.0
-181.78561 -155.27519 540.0
-178.32803 -155.56273 541.0
-174.53381 -155.56273 541.0
-170.73961 -155.56273 541.0
-167.25398 -155.85028 542.0
-163.75433 -156.13782 543.0
-159.94608 -156.13782 543.0
-156.42538 -156.42537 544.0
-152.61014 -156.42537 544.0
-149.0684 -156.71292 545.0
-145.24614 -156.71292 545.0
-141.68336 -157.00047 546.0
-138.10657 -157.28801 547.0
-127.88814 -149.8118 521.0
-124.711105 -150.38689 523.0
-121.73745 -151.24954 526.0
-116.25302 -170.22762 592.0
-112.290474 -170.51517 593.0
-108.13157 -170.51517 593.0
-104.32333 -171.09026 595.0
-100.487045 -171.66536 597.0
-96.6227 -172.24043 599.0
-92.730286 -172.81552 601.0
-190.76268 -160.24065 544.0
-186.60376 -159.94609 543.0
-181.78561 -159.06241 540.0
-177.99841 -159.06241 540.0
-174.21121 -159.06241 540.0
-170.42401 -159.06241 540.0
-166.63681 -159.06241 540.0
-163.15118 -159.35696 541.0
-159.65152 -159.65154 542.0
-156.13785 -159.94609 543.0
-152.61014 -160.24065 544.0
-148.79489 -160.24065 544.0
-145.24614 -160.53522 545.0
-141.68336 -160.82976 546.0
-137.85408 -160.82976 546.0
-126.90627 -152.28754 517.0
-123.995735 -153.17122 520.0
-121.04314 -154.0549 523.0
-120.20152 -174.08498 591.0
-115.86028 -173.79042 590.0
-111.91175 -174.08498 591.0
-107.766884 -174.08498 591.0
-103.97267 -174.6741 593.0
-100.318726 -175.55779 596.0
-96.30009 -175.85233 597.0
-190.412 -163.75433 543.0
-185.5728 -162.84961 540.0
-180.7757 -161.94489 537.0
-177.00952 -161.94489 537.0
-173.56598 -162.24646 538.0
-170.10841 -162.54803 539.0
-166.63681 -162.84961 540.0
-162.84961 -162.84961 540.0
-159.35696 -163.15118 541.0
-156.13785 -163.75433 543.0
-152.61014 -164.05591 544.0
-149.0684 -164.35747 545.0
-145.51265 -164.65904 546.0
-141.68336 -164.65904 546.0
-130.53217 -155.91342 517.0
-126.90627 -155.91342 517.0
-123.28038 -155.91342 517.0
-120.348816 -156.81815 520.0
-120.20152 -178.22984 591.0
-115.6639 -177.62671 589.0
-111.533035 -177.62671 589.0
-107.766884 -178.22984 591.0
-103.97267 -178.833 593.0
-100.318726 -179.73772 596.0
-193.50488 -166.94539 541.0
-189.36 -166.6368 540.0
-183.85454 -165.09387 535.0
-180.1024 -165.09387 535.0
-176.02063 -164.78528 534.0
-172.59814 -165.09387 535.0
-169.4772 -165.71104 537.0
-166.01962 -166.01964 538.0
-162.84961 -166.6368 540.0
-159.35696 -166.94539 541.0
-156.13785 -167.56256 543.0
-152.89067 -168.17975 545.0
-149.34193 -168.48831 546.0
-145.51265 -168.48831 546.0
-141.68336 -168.48831 546.0
-130.53217 -159.5393 517.0
-126.90627 -159.5393 517.0
-123.28038 -159.5393 517.0
-119.65449 -159.5393 517.0
-115.07479 -180.83179 586.0
-111.34367 -181.44896 588.0
-107.58453 -182.06615 590.0
-103.97267 -182.9919 593.0
-196.20502 -169.7928 538.0
-191.71648 -169.1616 536.0
-187.25601 -168.5304 534.0
-183.16724 -168.2148 533.0
-179.42914 -168.2148 533.0
-176.02063 -168.5304 534.0
-172.27551 -168.5304 534.0
-169.1616 -169.1616 536.0
-165.71104 -169.4772 537.0
-162.84961 -170.424 540.0
-159.65152 -171.0552 542.0
-156.42538 -171.6864 544.0
-153.45174 -172.6332 547.0
-149.34193 -172.3176 546.0
-150.57628 -178.314 565.0
-146.87323 -178.6296 566.0
-143.40865 -179.2608 568.0
-140.16147 -180.2076 571.0
-136.39531 -180.5232 572.0
-132.84657 -181.1544 574.0
-129.04533 -181.47 575.0
-125.447495 -182.1012 577.0
-122.032005 -183.048 580.0
-118.57443 -183.9948 583.0
-114.87841 -184.626 585.0
-111.15432 -185.2572 587.0
-199.60649 -173.24335 537.0
-195.11095 -172.59813 535.0
-191.00111 -172.27551 534.0
-186.90533 -171.95291 533.0
-182.47993 -171.30768 531.0
-178.75584 -171.30768 531.0
-175.36139 -171.6303 532.0
-172.27551 -172.27551 534.0
-168.84601 -172.59813 535.0
-165.71104 -173.24335 537.0
-162.84961 -174.2112 540.0
-159.65152 -174.85643 542.0
-156.42538 -175.50165 544.0
-157.37921 -180.98608 561.0
-153.71825 -181.3087 562.0
-150.57628 -182.27654 565.0
-146.61374 -182.27654 565.0
-143.66112 -183.56699 569.0
-139.67053 -183.56699 569.0
-135.91841 -183.8896 570.0
-132.3837 -184.53482 572.0
-129.04533 -185.50266 575.0
-125.447495 -186.14789 577.0
-122.032005 -187.11572 580.0
-118.37105 -187.76096 582.0
-114.68204 -188.40619 584.0
-204.1301 -177.66876 539.0
-198.49138 -176.02063 534.0
-194.38155 -175.69101 533.0
-189.92807 -175.03175 531.0
-185.85333 -174.70213 530.0
-181.79263 -174.37251 529.0
-178.4192 -174.70213 530.0
-174.70213 -174.70213 530.0
-171.95291 -175.69101 533.0
-168.84601 -176.35027 535.0
-165.71104 -177.00952 537.0
-162.84961 -177.99838 540.0
-159.94608 -178.98727 543.0
-156.42538 -179.3169 544.0
-157.09868 -184.59093 560.0
-153.99176 -185.57982 563.0
-150.57628 -186.23906 565.0
-146.61374 -186.23906 565.0
-143.15616 -186.89832 567.0
-139.42508 -187.22794 568.0
-135.67996 -187.55757 569.0
-132.3837 -188.54645 572.0
-129.04533 -189.53532 575.0
-125.23008 -189.86496 576.0
-121.611206 -190.52422 578.0
-117.96427 -191.18346 580.0
-212.8687 -182.45886 542.0
-208.296 -181.78558 540.0
-202.2365 -179.76575 534.0
-198.11967 -179.42911 533.0
-193.28748 -178.41919 530.0
-189.21272 -178.08255 529.0
-185.50267 -178.08255 529.0
-181.79263 -178.08255 529.0
-178.08258 -178.08255 529.0
-174.70213 -178.41919 530.0
-171.95291 -179.42911 533.0
-168.84601 -180.10239 535.0
-165.71104 -180.77567 537.0
-162.84961 -181.78558 540.0
-160.24063 -183.13216 544.0
-160.1635 -187.50847 557.0
-157.09868 -188.51839 560.0
-153.71825 -189.19167 562.0
-150.30978 -189.86496 564.0
-146.61374 -190.20158 565.0
-142.90369 -190.53824 566.0
-139.42508 -191.2115 568.0
-135.67996 -191.54816 569.0
-132.15225 -192.22144 571.0
-128.14763 -192.22144 571.0
-124.57784 -192.8947 573.0
-121.19041 -193.90463 576.0
-117.35411 -194.24127 577.0
-84.16 -201.984 600.0
-79.952 -201.984 600.0
-241.6865 -187.9784 547.0
-215.8704 -185.57281 540.0
-212.0832 -185.57281 540.0
-208.296 -185.57281 540.0
-201.85776 -183.16724 533.0
-197.37625 -182.47993 531.0
-192.92276 -181.79262 529.0
-189.21272 -181.79262 529.0
-185.15201 -181.44897 528.0
-181.79263 -181.79262 529.0
-178.08258 -181.79262 529.0
-174.70213 -182.13629 530.0
-171.95291 -183.16724 533.0
-168.84601 -183.85454 535.0
-165.71104 -184.54185 537.0
-163.45276 -186.26012 542.0
-160.5352 -187.29108 545.0
-159.87595 -191.07127 556.0
-156.81815 -192.10222 559.0
-153.44473 -192.78954 561.0
-149.77676 -193.1332 562.0
-146.35423 -193.8205 564.0
-142.6512 -194.16414 565.0
-138.93414 -194.5078 566.0
-134.72614 -194.16414 565.0
-131.22649 -194.85144 567.0
-127.69878 -195.53877 569.0
-124.14301 -196.22607 571.0
-120.559204 -196.91338 573.0
-116.947334 -197.60068 575.0
-113.30743 -198.288 577.0
-106.49045 -200.69357 584.0
-102.57001 -201.03722 585.0
-99.14049 -202.41182 589.0
-95.33225 -203.09914 591.0
-91.49594 -203.78644 593.0
-87.778885 -204.8174 596.0
-83.87947 -205.5047 598.0
-79.952 -206.19202 600.0
-75.99649 -206.87932 602.0
-72.0129 -207.56662 604.0
-249.95522 -189.36002 540.0
-245.25627 -188.65868 538.0
-244.17622 -190.76266 544.0
-241.6865 -191.81467 547.0
-238.28502 -192.16534 548.0
-225.51375 -191.11334 545.0
-219.65761 -189.36002 540.0
-215.8704 -189.36002 540.0
-211.29771 -188.65868 538.0
-205.98161 -187.25601 534.0
-201.47905 -186.55467 532.0
-197.00455 -185.85335 530.0
-192.92276 -185.50267 529.0
-188.85506 -185.15201 528.0
-185.15201 -185.15201 528.0
-181.79263 -185.50267 529.0
-178.08258 -185.50267 529.0
-174.70213 -185.85335 530.0
-171.95291 -186.90533 533.0
-168.84601 -187.60667 535.0
-165.71104 -188.30801 537.0
-163.45276 -190.06134 542.0
-163.18623 -194.26935 554.0
-159.87595 -194.97067 556.0
-156.53761 -195.67201 558.0
-153.1712 -196.37334 560.0
-149.51025 -196.72401 561.0
-145.83525 -197.07468 562.0
-141.89377 -197.07468 562.0
-138.19774 -197.42534 563.0
-134.48769 -197.77602 564.0
-130.76361 -198.12668 565.0
-127.249916 -198.82802 567.0
-123.70818 -199.52934 569.0
-120.3488 -200.58134 572.0
-116.74396 -201.28267 574.0
-113.30743 -202.33467 577.0
-109.63944 -203.03601 579.0
-106.12576 -204.08801 582.0
-102.39467 -204.78934 584.0
-98.63553 -205.49068 586.0
-94.848335 -206.19202 588.0
-91.187355 -207.24402 591.0
-87.484314 -208.29602 594.0
-83.739204 -209.348 597.0
-79.818756 -210.04935 599.0
-75.870255 -210.75067 601.0
-72.0129 -211.80267 604.0
-255.02585 -188.49736 527.0
-250.85292 -188.13968 526.0
-246.69402 -187.782 525.0
-243.93776 -188.49736 527.0
-240.6976 -188.85504 528.0
-237.89227 -189.5704 530.0
-241.24466 -195.29329 546.0
-236.98055 -194.9356 545.0
-232.30266 -194.22025 543.0
-228.07361 -193.86256 542.0
-223.85861 -193.50488 541.0
-219.25085 -192.78954 539.0
-214.67113 -192.07416 537.0
-210.5122 -191.71648 536.0
-205.98161 -191.00113 534.0
-201.10034 -189.92809 531.0
-196.63284 -189.21274 529.0
-192.92276 -189.21274 529.0
-188.85506 -188.85504 528.0
-184.80135 -188.49736 527.0
-181.44896 -188.85504 528.0
-178.08258 -189.21274 529.0
-174.70213 -189.5704 530.0
-172.27551 -191.00113 534.0
-169.1616 -191.71648 536.0
-165.71104 -192.07416 537.0
-165.86534 -196.724 550.0
-162.89168 -197.79704 553.0
-159.30086 -198.15472 554.0
-155.97653 -198.87009 556.0
-152.62416 -199.58545 558.0
-148.71074 -199.58545 558.0
-144.79727 -199.58545 558.0
-141.13632 -199.94313 559.0
-137.7068 -200.65848 561.0
-134.01079 -201.01616 562.0
-130.30074 -201.37384 563.0
-126.80106 -202.0892 565.0
-123.27336 -202.80457 567.0
-120.138405 -204.23528 571.0
-116.54057 -204.95065 573.0
-113.111046 -206.02368 576.0
-109.45007 -206.73904 578.0
-105.76107 -207.4544 580.0
-102.04401 -208.16977 582.0
-98.29889 -208.88513 584.0
-94.68703 -209.95816 587.0
-90.87877 -210.67352 589.0
-87.18976 -211.74657 592.0
-83.318405 -212.46193 594.0
-79.552246 -213.53496 597.0
-75.74401 -214.608 600.0
-72.0129 -216.03873 604.0
-255.77628 -190.00522 521.0
-253.5741 -191.0993 524.0
-250.376 -191.464 525.0
-246.2241 -191.0993 524.0
-242.08626 -190.73462 523.0
-239.33 -191.464 525.0
-236.54572 -192.19339 527.0
-238.15178 -196.5697 539.0
-234.80641 -196.9344 540.0
-231.01921 -196.9344 540.0
-227.23201 -196.9344 540.0
-222.61723 -196.20502 538.0
-218.03052 -195.47562 536.0
-213.87161 -195.11093 535.0
-209.72672 -194.74625 534.0
-205.98161 -194.74625 534.0
-201.47905 -194.01686 532.0
-196.63284 -192.92278 529.0
-192.55807 -192.55809 528.0
-188.49736 -192.19339 527.0
-184.80135 -192.19339 527.0
-181.44896 -192.55809 528.0
-178.08258 -192.92278 529.0
-175.03177 -193.65216 531.0
-172.59814 -195.11093 535.0
-170.10841 -196.5697 539.0
-168.48834 -199.12256 546.0
-165.86534 -200.58133 550.0
-162.59712 -201.31071 552.0
-159.30086 -202.0401 554.0
-155.41547 -202.0401 554.0
-151.53009 -202.0401 554.0
-147.91121 -202.4048 555.0
-144.27829 -202.7695 556.0
-140.63136 -203.13419 557.0
-136.9704 -203.49889 558.0
-133.77232 -204.59297 561.0
-130.06929 -204.95766 562.0
-126.57664 -205.68704 564.0
-122.83854 -206.05173 565.0
-119.928 -207.8752 570.0
-116.33718 -208.60458 572.0
-112.7183 -209.33398 574.0
-109.26072 -210.42805 577.0
-105.39637 -210.79276 578.0
-101.86867 -211.88683 581.0
-97.96225 -212.25151 582.0
-94.52572 -213.7103 586.0
-90.87877 -214.80438 589.0
-87.18976 -215.89845 592.0
-83.318405 -216.62784 594.0
-285.6741 -196.63283 529.0
-281.96405 -196.63283 529.0
-278.254 -196.63283 529.0
-267.79715 -191.80063 516.0
-263.6663 -191.42892 515.0
-262.07425 -192.91576 519.0
-259.4302 -193.65918 521.0
-255.77628 -193.65918 521.0
-252.60625 -194.03088 522.0
-248.46838 -193.65918 521.0
-244.34454 -193.28748 520.0
-240.6976 -193.28748 520.0
-237.50655 -193.65918 521.0
-235.19916 -194.77429 524.0
-237.2681 -199.60648 537.0
-233.50192 -199.60648 537.0
-229.30794 -199.23477 536.0
-225.54881 -199.23477 536.0
-221.37587 -198.86307 535.0
-217.21698 -198.49135 534.0
-213.47183 -198.49135 534.0
-209.72672 -198.49135 534.0
-205.59587 -198.11964 533.0
-201.10034 -197.37624 531.0
-196.63284 -196.63283 529.0
-192.55807 -196.26112 528.0
-188.85506 -196.26112 528.0
-185.15201 -196.26112 528.0
-181.79263 -196.63283 529.0
-178.4192 -197.00453 530.0
-175.69101 -198.11964 533.0
-173.56598 -199.9782 538.0
-171.3708 -201.83672 543.0
-168.79692 -203.32355 547.0
-165.86534 -204.43867 550.0
-162.00801 -204.43867 550.0
-158.4382 -204.81038 551.0
-155.13493 -205.55379 553.0
-151.53009 -205.92549 554.0
-147.64471 -205.92549 554.0
-143.7593 -205.92549 554.0
-140.37889 -206.6689 556.0
-136.72495 -207.04062 557.0
-133.05698 -207.41232 558.0
-129.83784 -208.52744 561.0
-126.57664 -209.64255 564.0
-122.83854 -210.01427 565.0
-119.717606 -211.5011 569.0
-116.33718 -212.61621 572.0
-112.7183 -213.35962 574.0
-109.07136 -214.10304 576.0
-105.21403 -214.47475 577.0
-101.69334 -215.58986 580.0
-97.79392 -215.96158 581.0
-94.52572 -217.8201 586.0
-90.87877 -218.93523 589.0
-287.74307 -199.20671 526.0
-279.73383 -196.17696 518.0
-272.99402 -196.55566 519.0
-268.8351 -196.17696 518.0
-264.69022 -195.79823 517.0
-261.56927 -196.17696 518.0
-257.9364 -196.17696 518.0
-253.81255 -195.79823 517.0
-249.21881 -195.0408 515.0
-245.13005 -194.66206 514.0
-241.99507 -195.0408 515.0
-238.38321 -195.0408 515.0
-236.5948 -196.55566 519.0
-232.9549 -196.55566 519.0
-236.38441 -202.6152 535.0
-232.63228 -202.6152 535.0
-228.45232 -202.23647 534.0
-224.70721 -202.23647 534.0
-220.9621 -202.23647 534.0
-216.81021 -201.85776 533.0
-213.07208 -201.85776 533.0
-208.94124 -201.47903 532.0
-204.8244 -201.10031 531.0
-200.7216 -200.7216 530.0
-196.63284 -200.34286 529.0
-192.55807 -199.96416 528.0
-189.21272 -200.34286 529.0
-185.50267 -200.34286 529.0
-182.13628 -200.7216 530.0
-179.0925 -201.47903 532.0
-176.6799 -202.99391 536.0
-174.21121 -204.5088 540.0
-171.6864 -206.02367 544.0
-168.48834 -206.78111 546.0
-164.96063 -207.15984 547.0
-161.12431 -207.15984 547.0
-157.86311 -207.91727 549.0
-154.57387 -208.67471 551.0
-150.98305 -209.05344 552.0
-147.3782 -209.43216 553.0
-143.7593 -209.81087 554.0
-140.1264 -210.1896 555.0
-136.72495 -210.94704 557.0
-133.05698 -211.32576 558.0
-129.60641 -212.0832 560.0
-126.35221 -213.21935 563.0
-123.05595 -214.35551 566.0
-119.717606 -215.49167 569.0
-116.33718 -216.62784 572.0
-112.7183 -217.38527 574.0
-279.53745 -197.10973 511.0
-278.11374 -198.65266 515.0
-274.50186 -198.65266 515.0
-270.89 -198.65266 515.0
-267.79715 -199.03839 516.0
-264.17825 -199.03839 516.0
-260.0544 -198.65266 515.0
-254.9487 -197.49545 512.0
-250.86694 -197.10973 511.0
-247.28314 -197.10973 511.0
-243.69933 -197.10973 511.0
-240.58539 -197.49545 512.0
-237.45746 -197.88118 513.0
-234.31548 -198.26692 514.0
-232.05719 -199.42413 517.0
-235.50073 -205.59586 533.0
-231.76262 -205.59586 533.0
-227.5967 -205.21013 532.0
-224.2864 -205.59586 533.0
-220.13452 -205.21013 532.0
-215.99666 -204.82439 531.0
-211.8728 -204.43866 530.0
-208.15575 -204.43866 530.0
-204.43867 -204.43866 530.0
-200.7216 -204.43866 530.0
-197.00455 -204.43866 530.0
-192.92276 -204.05293 529.0
-189.21272 -204.05293 529.0
-185.85333 -204.43866 530.0
-183.16724 -205.59586 533.0
-179.76578 -205.98158 534.0
-177.99841 -208.29599 540.0
-174.53381 -208.68173 541.0
-171.3708 -209.45319 543.0
-167.87115 -209.83893 544.0
-164.35747 -210.22466 545.0
-160.82976 -210.61038 546.0
-157.00047 -210.61038 546.0
-153.73227 -211.38185 548.0
-150.16249 -211.7676 549.0
-146.84518 -212.53906 551.0
-143.4998 -213.31053 553.0
-139.87392 -213.69626 554.0
-136.72495 -214.85345 557.0
-133.05698 -215.23918 558.0
-129.83784 -216.3964 561.0
-126.35221 -217.16786 563.0
-122.83854 -217.93932 565.0
-278.99042 -200.30078 510.0
-275.4136 -200.30078 510.0
-272.90283 -201.08629 512.0
-269.312 -201.08629 512.0
-265.2022 -200.69354 511.0
-261.1064 -200.30078 510.0
-256.51968 -199.51529 508.0
-253.45485 -199.90805 509.0
-250.376 -200.30078 510.0
-246.79921 -200.30078 510.0
-243.69933 -200.69354 511.0
-240.1155 -200.69354 511.0
-236.99457 -201.08629 512.0
-234.31548 -201.87178 514.0
-231.60834 -202.65727 516.0
-234.61705 -208.54848 531.0
-230.45815 -208.15572 530.0
-227.16888 -208.54848 531.0
-223.024 -208.15572 530.0
-219.30695 -208.15572 530.0
-215.58987 -208.15572 530.0
-211.47304 -207.76297 529.0
-207.76299 -207.76297 529.0
-204.05295 -207.76297 529.0
-200.3429 -207.76297 529.0
-196.63284 -207.76297 529.0
-193.28748 -208.15572 530.0
-189.5704 -208.15572 530.0
-186.20401 -208.54848 531.0
-183.5109 -209.7267 534.0
-180.43906 -210.51219 536.0
-177.99841 -212.08319 540.0
-174.85643 -212.86868 542.0
-171.0552 -212.86868 542.0
-167.56256 -213.26143 543.0
-164.05591 -213.65417 544.0
-160.5352 -214.04692 545.0
-157.00047 -214.43967 546.0
-153.1712 -214.43967 546.0
-149.88896 -215.22516 548.0
-146.57867 -216.01067 550.0
-143.4998 -217.18889 553.0
-139.87392 -217.58165 554.0
-136.47948 -218.36713 556.0
-133.29543 -219.54536 559.0
-130.06929 -220.72362 562.0
-277.3493 -202.67833 507.0
-273.79352 -202.67833 507.0
-269.70474 -202.27856 506.0
-265.63 -201.87881 505.0
-262.0883 -201.87881 505.0
-259.05853 -202.27856 506.0
-256.0147 -202.67833 507.0
-252.45897 -202.67833 507.0
-248.90321 -202.67833 507.0
-245.83136 -203.0781 508.0
-242.2686 -203.0781 508.0
-239.64561 -203.87761 510.0
-236.53168 -204.27736 511.0
-233.8596 -205.07689 513.0
-231.15947 -205.87642 515.0
-230.19865 -208.27496 521.0
-230.0233 -211.47305 529.0
-226.31325 -211.47305 529.0
-222.60321 -211.47305 529.0
-218.89316 -211.47305 529.0
-215.18312 -211.47305 529.0
-211.47304 -211.47305 529.0
-207.76299 -211.47305 529.0
-204.05295 -211.47305 529.0
-200.3429 -211.47305 529.0
-197.00455 -211.87282 530.0
-193.65216 -212.27257 531.0
-189.92807 -212.27257 531.0
-186.90533 -213.0721 533.0
-183.5109 -213.47185 534.0
-180.7757 -214.67113 537.0
-177.66876 -215.47066 539.0
-174.21121 -215.8704 540.0
-170.73961 -216.27017 541.0
-167.25398 -216.66994 542.0
-163.75433 -217.0697 543.0
-160.24063 -217.46947 544.0
-156.71294 -217.8692 545.0
-153.1712 -218.26897 546.0
-149.88896 -219.0685 548.0
-146.57867 -219.868 550.0
-143.24033 -220.66753 552.0
-140.1264 -221.8668 555.0
-136.72495 -222.66634 557.0
-274.06705 -203.79344 501.0
-271.09338 -204.20023 502.0
-267.5727 -204.20023 502.0
-264.578 -204.607 503.0
-261.0503 -204.607 503.0
-258.03458 -205.01376 504.0
-255.0048 -205.42055 505.0
-251.46307 -205.42055 505.0
-248.90321 -206.23409 507.0
-245.34746 -206.23409 507.0
-241.31479 -205.82732 506.0
-237.29614 -205.42055 505.0
-234.68016 -206.23409 507.0
-231.58028 -206.64085 508.0
-228.9152 -207.4544 510.0
-231.966 -213.55602 525.0
-228.28401 -213.55602 525.0
-225.02982 -213.96278 526.0
-221.76161 -214.36955 527.0
-218.47937 -214.77634 528.0
-214.77634 -214.77634 528.0
-211.47304 -215.18309 529.0
-207.76299 -215.18309 529.0
-204.05295 -215.18309 529.0
-200.7216 -215.58989 530.0
-197.37625 -215.99663 531.0
-194.01686 -216.40341 532.0
-190.64345 -216.8102 533.0
-187.25601 -217.21696 534.0
-184.1982 -218.03052 536.0
-180.7757 -218.4373 537.0
-177.33914 -218.84407 538.0
-173.88858 -219.25082 539.0
-170.42401 -219.6576 540.0
-167.25398 -220.47116 542.0
-163.75433 -220.87793 543.0
-159.94608 -220.87793 543.0
-156.71294 -221.69148 545.0
-153.1712 -222.09824 546.0
-150.16249 -223.31856 549.0
-146.84518 -224.13213 551.0
-143.7593 -225.35242 554.0
-271.33185 -205.23819 496.0
-269.4733 -206.47955 499.0
-266.50668 -206.89334 500.0
-264.052 -207.7209 502.0
-260.5313 -207.7209 502.0
-257.5226 -208.13469 503.0
-253.48993 -207.7209 502.0
-249.96924 -207.7209 502.0
-247.4304 -208.54848 504.0
-243.89569 -208.54848 504.0
-239.40717 -207.7209 502.0
-235.88646 -207.7209 502.0
-232.82866 -208.13469 503.0
-230.21268 -208.96227 505.0
-227.56865 -209.78984 507.0
-231.966 -217.238 525.0
-227.84917 -216.82422 524.0
-224.602 -217.238 525.0
-221.76161 -218.06558 527.0
-218.47937 -218.47937 528.0
-215.18312 -218.89316 529.0
-211.8728 -219.30695 530.0
-208.15575 -219.30695 530.0
-204.8244 -219.72073 531.0
-201.47905 -220.13452 532.0
-198.11967 -220.54831 533.0
-194.74623 -220.9621 534.0
-191.00111 -220.9621 534.0
-187.60667 -221.37585 535.0
-184.1982 -221.78964 536.0
-180.7757 -222.20343 537.0
-177.33914 -222.61722 538.0
-173.88858 -223.031 539.0
-170.42401 -223.4448 540.0
-167.25398 -224.27237 542.0
-163.75433 -224.68617 543.0
-159.94608 -224.68617 543.0
-156.71294 -225.51375 545.0
-153.45174 -226.34132 547.0
-150.70953 -227.99644 551.0
-147.3782 -228.82402 553.0

