ply
format ascii 1.0
comment made by @arthurmuchir
element vertex 637
property float x
property float y
property float z
end_header
-161.19447 -151.71242 676.0
-156.91634 -152.16127 678.0
-164.95361 -155.52766 672.0
-160.71756 -155.99055 674.0
-156.45345 -156.45341 676.0
-174.12003 -160.0022 671.0
-168.65665 -159.28683 668.0
-164.46268 -159.76375 670.0
-160.0022 -160.0022 671.0
-155.99059 -160.71756 674.0
-178.02647 -163.97174 668.0
-173.08205 -163.72629 667.0
-168.40416 -163.72629 667.0
-163.72627 -163.72629 667.0
-159.76373 -164.46268 670.0
-155.5277 -164.95361 672.0
-176.42743 -167.14177 662.0
-171.78459 -167.14177 662.0
-167.64671 -167.64673 664.0
-163.72627 -168.40416 667.0
-159.28683 -168.65665 668.0
-145.3864 -174.46368 691.0
-140.94698 -174.96864 693.0
-136.2831 -175.22113 694.0
-131.41583 -175.22113 694.0
-229.71474 -160.36688 618.0
-226.47456 -161.14537 621.0
-222.11928 -161.14537 621.0
-179.97617 -170.74661 658.0
-176.16092 -171.5251 661.0
-171.78459 -171.78459 662.0
-167.39426 -172.04408 663.0
-163.72627 -173.08206 667.0
-159.04839 -173.08206 667.0
-150.01521 -179.0504 690.0
-144.7552 -178.53142 688.0
-140.3368 -179.0504 690.0
-136.08673 -179.82889 693.0
-131.79456 -180.60736 696.0
-233.29153 -164.1681 616.0
-229.71474 -164.70111 618.0
-225.38048 -164.70111 618.0
-221.40392 -164.96762 619.0
-183.74934 -174.56186 655.0
-179.70265 -175.09488 657.0
-175.3614 -175.36139 658.0
-171.5251 -176.1609 661.0
-167.14177 -176.42741 662.0
-162.98987 -176.96042 664.0
-153.50783 -182.29056 684.0
-149.14554 -182.82358 686.0
-144.5448 -183.09009 687.0
-139.93004 -183.35658 688.0
-135.69398 -184.15611 691.0
-131.41583 -184.95563 694.0
-232.53409 -167.94127 614.0
-228.22792 -167.94127 614.0
-224.2864 -168.2148 615.0
-220.33087 -168.48831 616.0
-217.06267 -169.30887 619.0
-188.34308 -179.1556 655.0
-183.46881 -178.88206 654.0
-178.8821 -178.88206 654.0
-174.56189 -179.1556 655.0
-171.0061 -180.24966 659.0
-157.84209 -186.54063 682.0
-153.05899 -186.54063 682.0
-148.49332 -186.81415 683.0
-143.9136 -187.08768 684.0
-139.72665 -187.90823 687.0
-135.10487 -188.18175 688.0
-231.39793 -171.40585 611.0
-227.4845 -171.68639 612.0
-223.557 -171.96693 613.0
-219.61552 -172.24745 614.0
-216.712 -173.36958 618.0
-192.05312 -182.90771 652.0
-187.76799 -183.18826 653.0
-183.18828 -183.18826 653.0
-178.8821 -183.46878 654.0
-174.56189 -183.74931 655.0
-170.48712 -184.3104 657.0
-156.91634 -190.20158 678.0
-152.16127 -190.20158 678.0
-148.2759 -191.32372 682.0
-143.9136 -191.88478 684.0
-139.72665 -192.7264 687.0
-231.01921 -175.40346 610.0
-226.74107 -175.40346 610.0
-222.46294 -175.40346 610.0
-219.25786 -176.2661 613.0
-215.66 -176.84119 615.0
-212.72144 -177.99138 619.0
-195.41954 -186.33022 648.0
-191.16943 -186.61778 649.0
-186.61778 -186.61778 649.0
-182.34668 -186.90532 650.0
-178.8821 -188.05551 654.0
-174.56189 -188.34305 655.0
-170.74661 -189.20569 658.0
-164.95361 -193.23134 672.0
-160.71756 -193.80643 674.0
-156.22202 -194.094 675.0
-151.71243 -194.38153 676.0
-147.84106 -195.53172 680.0
-143.7032 -196.39435 683.0
-230.64049 -179.38705 609.0
-226.36938 -179.38705 609.0
-222.09824 -179.38705 609.0
-218.54248 -179.97618 611.0
-215.30934 -180.85985 614.0
-212.37776 -182.0381 618.0
-195.11797 -190.58034 647.0
-190.58032 -190.58034 647.0
-186.0427 -190.58034 647.0
-182.06615 -191.16945 649.0
-178.33505 -192.05313 652.0
-174.29538 -192.64224 654.0
-173.86052 -197.35521 670.0
-168.65665 -196.7661 668.0
-164.46268 -197.35521 670.0
-160.24065 -197.94434 672.0
-155.5277 -197.94434 672.0
-151.48799 -198.82802 675.0
-147.40625 -199.7117 678.0
-234.9116 -183.65817 609.0
-230.26176 -183.35658 608.0
-225.99767 -183.35658 608.0
-222.09824 -183.65817 609.0
-218.54248 -184.26132 611.0
-215.30934 -185.16603 614.0
-211.00316 -185.16603 614.0
-199.347 -194.81638 646.0
-194.81639 -194.81638 646.0
-190.28577 -194.81638 646.0
-186.0427 -195.11795 647.0
-182.06615 -195.7211 649.0
-178.33505 -196.62582 652.0
-173.08205 -201.14943 667.0
-168.40416 -201.14943 667.0
-163.72627 -201.14943 667.0
-159.76373 -202.05414 670.0
-155.5277 -202.6573 672.0
-151.48799 -203.56201 675.0
-126.548584 -209.2919 694.0
-122.20734 -210.19662 697.0
-234.52588 -187.6207 608.0
-229.88306 -187.3121 607.0
-225.62596 -187.3121 607.0
-222.09824 -187.92928 609.0
-218.54248 -188.54646 611.0
-214.95868 -189.16364 613.0
-202.9308 -198.42123 643.0
-198.42123 -198.42123 643.0
-193.91167 -198.42123 643.0
-190.28577 -199.34698 646.0
-186.0427 -199.65558 647.0
-182.06615 -200.27275 649.0
-177.78801 -200.58134 650.0
-176.69394 -204.59297 663.0
-172.04408 -204.59297 663.0
-167.39426 -204.59297 663.0
-163.4808 -205.51874 666.0
-159.28683 -206.1359 668.0
-155.5277 -207.37025 672.0
-134.9085 -211.99905 687.0
-130.27968 -212.30763 688.0
-126.00155 -213.23338 691.0
-121.681335 -214.15915 694.0
-234.52588 -191.8848 608.0
-229.50433 -191.2536 606.0
-225.25426 -191.2536 606.0
-221.73355 -191.8848 608.0
-218.18481 -192.516 610.0
-214.25734 -192.8316 611.0
-206.79515 -202.2996 641.0
-202.2996 -202.2996 641.0
-198.11266 -202.6152 642.0
-193.91167 -202.9308 643.0
-190.28577 -203.8776 646.0
-186.33025 -204.5088 648.0
-182.34668 -205.14 650.0
-180.79674 -208.6116 661.0
-176.16092 -208.6116 661.0
-171.5251 -208.6116 661.0
-167.14177 -208.9272 662.0
-162.98987 -209.5584 664.0
-159.04839 -210.5052 667.0
-155.29625 -211.7676 671.0
-139.11649 -215.8704 684.0
-134.71213 -216.5016 686.0
-130.09032 -216.8172 687.0
-125.454506 -217.1328 688.0
-121.155334 -218.0796 691.0
-239.18272 -196.47151 609.0
-234.14014 -195.8263 607.0
-229.50433 -195.50368 606.0
-225.25426 -195.50368 606.0
-221.73355 -196.14891 608.0
-218.18481 -196.79413 610.0
-214.95868 -197.76196 613.0
-214.77634 -205.8273 638.0
-210.3018 -205.8273 638.0
-205.82732 -205.8273 638.0
-201.35281 -205.8273 638.0
-197.49547 -206.47253 640.0
-193.61009 -207.11775 642.0
-189.69664 -207.76299 644.0
-186.33025 -209.05344 648.0
-183.74934 -211.31172 655.0
-179.97617 -212.27957 658.0
-175.3614 -212.27957 658.0
-171.0061 -212.60219 659.0
-166.88928 -213.2474 661.0
-162.98987 -214.21524 664.0
-158.80994 -214.86047 666.0
-143.072 -219.37706 680.0
-138.70972 -220.02228 682.0
-134.123 -220.3449 683.0
-129.90096 -221.31276 686.0
-125.27216 -221.63536 687.0
-238.78998 -200.41301 608.0
-233.75441 -199.75375 606.0
-228.7469 -199.0945 604.0
-225.62596 -200.08337 607.0
-222.09824 -200.74263 609.0
-217.82712 -200.74263 609.0
-220.92001 -207.6648 630.0
-216.15796 -207.33516 629.0
-213.42978 -208.98329 634.0
-209.31294 -209.31293 635.0
-205.18208 -209.64255 636.0
-200.7216 -209.64255 636.0
-196.56972 -209.97218 637.0
-193.30852 -211.29068 641.0
-189.69664 -212.27957 644.0
-186.33025 -213.59807 648.0
-183.46881 -215.57584 654.0
-179.15561 -215.90546 655.0
-174.56189 -215.90546 655.0
-170.74661 -216.89433 658.0
-166.88928 -217.88322 661.0
-162.7444 -218.54247 663.0
-151.48799 -222.498 675.0
-147.40625 -223.48688 678.0
-142.6512 -223.48688 678.0
-138.30295 -224.14612 680.0
-134.123 -225.13501 683.0
-129.52223 -225.46463 684.0
-125.27216 -226.4535 687.0
-242.25456 -204.00381 606.0
-237.219 -203.33055 604.0
-232.98294 -203.33055 604.0
-228.7469 -203.33055 604.0
-225.99767 -204.67711 608.0
-222.46294 -205.35039 610.0
-218.18481 -205.35039 610.0
-220.92001 -212.08319 630.0
-216.5016 -212.08319 630.0
-212.41985 -212.41982 631.0
-208.32405 -212.75647 632.0
-204.53685 -213.42975 634.0
-200.7216 -214.10303 636.0
-196.56972 -214.43967 637.0
-193.00694 -215.44958 640.0
-189.10751 -216.12286 642.0
-186.0427 -217.80608 647.0
-182.34668 -218.81598 650.0
-178.8821 -220.16254 654.0
-174.56189 -220.49918 655.0
-170.74661 -221.50911 658.0
-166.88928 -222.51903 661.0
-160.0022 -225.88544 671.0
-155.5277 -226.22208 672.0
-150.81471 -226.22208 672.0
-146.754 -227.23198 675.0
-142.23041 -227.56863 676.0
-138.09956 -228.57854 679.0
-133.92662 -229.58847 682.0
-245.69112 -207.56662 604.0
-241.45503 -207.56662 604.0
-236.82625 -207.22298 603.0
-232.98294 -207.56662 604.0
-229.50433 -208.25394 606.0
-225.99767 -208.94124 608.0
-222.82764 -209.9722 611.0
-223.55 -214.78334 625.0
-219.16667 -214.78334 625.0
-215.8143 -215.8143 628.0
-211.74658 -216.15796 629.0
-207.99443 -216.84528 631.0
-203.89163 -217.18892 632.0
-200.406 -218.21988 635.0
-196.26114 -218.56354 636.0
-192.40381 -219.25085 638.0
-189.10751 -220.62546 642.0
-185.18005 -221.31276 644.0
-181.78561 -222.68736 648.0
-178.33505 -224.06198 652.0
-174.29538 -224.7493 654.0
-170.74661 -226.1239 658.0
-168.15167 -228.87312 666.0
-163.72627 -229.21678 667.0
-159.04839 -229.21678 667.0
-155.06482 -230.24774 670.0
-150.5903 -230.59142 671.0
-146.53659 -231.62236 674.0
-142.23041 -232.30968 676.0
-138.09956 -233.34064 679.0
-133.92662 -234.37158 682.0
-249.92717 -211.80267 604.0
-245.28433 -211.45201 603.0
-241.05528 -211.45201 603.0
-236.82625 -211.45201 603.0
-232.98294 -211.80267 604.0
-229.50433 -212.50401 606.0
-226.36938 -213.55602 609.0
-223.557 -214.95866 613.0
-220.33087 -216.01068 616.0
-217.764 -217.764 621.0
-214.78334 -219.16669 625.0
-211.07329 -219.868 627.0
-207.99443 -221.27069 631.0
-203.89163 -221.62134 632.0
-200.09041 -222.32268 634.0
-196.26114 -223.024 636.0
-192.40381 -223.72534 638.0
-188.81296 -224.77734 641.0
-184.89252 -225.47868 643.0
-181.50507 -226.88135 647.0
-178.33505 -228.63469 652.0
-174.02887 -228.98534 653.0
-171.78459 -232.14134 662.0
-167.39426 -232.492 663.0
-162.7444 -232.492 663.0
-158.33302 -232.84268 664.0
-154.3705 -233.89468 667.0
-150.5903 -235.29735 671.0
-146.10176 -235.648 672.0
-142.23041 -237.05069 676.0
-249.51337 -215.68103 603.0
-244.47078 -214.96568 601.0
-240.25577 -214.96568 601.0
-236.4335 -215.32336 602.0
-232.98294 -216.03873 604.0
-229.50433 -216.75409 606.0
-226.36938 -217.82713 609.0
-223.19232 -218.90016 612.0
-220.33087 -220.3309 616.0
-217.06267 -221.40393 619.0
-214.09602 -222.83464 623.0
-210.40001 -223.55 625.0
-207.66481 -225.3384 630.0
-203.56902 -225.69609 631.0
-199.45921 -226.05377 632.0
-195.95255 -227.1268 635.0
-192.10223 -227.84216 637.0
-188.81296 -229.27289 641.0
-184.60497 -229.63057 642.0
-180.66347 -230.34593 644.0
-177.24097 -231.77664 648.0
-174.29538 -233.92273 654.0
-171.0061 -235.71114 659.0
-166.88928 -236.4265 661.0
-162.49893 -236.78416 662.0
-158.09456 -237.14183 663.0
-154.3705 -238.57257 667.0
-150.5903 -240.0033 671.0
-146.10176 -240.36096 672.0
-253.32161 -219.5454 602.0
-248.272 -218.816 600.0
-244.47078 -219.18071 601.0
-239.856 -218.816 600.0
-236.04074 -219.18071 601.0
-232.59721 -219.91006 603.0
-228.7469 -220.27478 604.0
-226.74107 -222.46294 610.0
-223.19232 -223.19234 612.0
-219.9732 -224.2864 615.0
-217.06267 -225.74518 619.0
-213.75238 -226.83925 622.0
-210.06339 -227.56863 624.0
-207.33517 -229.39212 629.0
-203.56902 -230.1215 631.0
-199.45921 -230.48619 632.0
-195.95255 -231.58026 635.0
-192.10223 -232.30965 637.0
-188.5184 -233.40375 640.0
-184.31741 -233.76842 641.0
-180.38293 -234.49782 643.0
-176.96745 -235.95659 647.0
-174.29538 -238.50943 654.0
-170.48712 -239.60353 657.0
-166.13185 -239.96822 658.0
-162.25348 -241.0623 661.0
-157.85611 -241.42699 662.0
-154.13905 -242.88577 666.0
-150.36586 -244.34454 670.0
-252.48001 -223.024 600.0
-247.85823 -222.65228 599.0
-243.65724 -222.65228 599.0
-239.45624 -222.65228 599.0
-235.64801 -223.024 600.0
-232.59721 -224.13913 603.0
-229.50433 -225.25424 606.0
-226.36938 -226.36937 609.0
-223.557 -227.85619 613.0
-219.9732 -228.5996 615.0
-217.06267 -230.08643 619.0
-213.75238 -231.20155 622.0
-210.40001 -232.31667 625.0
-207.66481 -234.1752 630.0
-203.56902 -234.54689 631.0
-200.09041 -235.66202 634.0
-195.95255 -236.03374 635.0
-192.10223 -236.77716 637.0
-187.92928 -237.14885 638.0
-184.31741 -238.26398 641.0
-180.1024 -238.63567 642.0
-176.96745 -240.49422 647.0
-173.76236 -242.35275 652.0
-169.96812 -243.46786 655.0
-165.87936 -244.21127 657.0
-161.76254 -244.95468 659.0
-157.85611 -246.06981 662.0
-256.68802 -227.232 600.0
-252.48001 -227.232 600.0
-247.03065 -226.09584 597.0
-243.25047 -226.47456 598.0
-239.45624 -226.85327 599.0
-235.64801 -227.232 600.0
-232.21147 -227.98944 602.0
-229.50433 -229.5043 606.0
-226.36938 -230.64047 609.0
-223.19232 -231.77664 612.0
-219.9732 -232.9128 615.0
-217.06267 -234.42767 619.0
-213.75238 -235.56383 622.0
-210.40001 -236.7 625.0
-207.33517 -238.21487 629.0
-203.56902 -238.9723 631.0
-200.09041 -240.10847 634.0
-196.26114 -240.8659 636.0
-192.10223 -241.24463 637.0
-187.92928 -241.62337 638.0
-184.31741 -242.7595 641.0
-180.1024 -243.13823 642.0
-176.96745 -245.03183 647.0
-172.96284 -245.78928 649.0
-169.70863 -247.68288 654.0
-165.87936 -248.81903 657.0
-161.51707 -249.19777 658.0
-256.68802 -231.44 600.0
-250.79681 -229.89706 596.0
-246.20308 -229.51132 595.0
-242.84369 -230.2828 597.0
-239.05647 -230.66852 598.0
-235.64801 -231.44 600.0
-231.82574 -231.82571 601.0
-228.7469 -232.98291 604.0
-226.36938 -234.9116 609.0
-223.19232 -236.0688 612.0
-219.61552 -236.84026 614.0
-217.06267 -238.76892 619.0
-214.09602 -240.31186 623.0
-211.07329 -241.8548 627.0
-207.33517 -242.62625 629.0
-203.56902 -243.39772 631.0
-199.45921 -243.78346 632.0
-195.95255 -244.94066 635.0
-191.80064 -245.3264 636.0
-187.63472 -245.71211 637.0
-183.45479 -246.09785 638.0
-180.1024 -247.6408 642.0
-176.69394 -249.18372 646.0
-172.69633 -249.9552 648.0
-169.44914 -251.88387 653.0
-130.3919 -256.12692 664.0
-126.303116 -257.28412 667.0
-121.62523 -257.28412 667.0
-260.02634 -234.86249 598.0
-255.40457 -234.46974 597.0
-250.79681 -234.07701 596.0
-245.78929 -233.2915 594.0
-242.03014 -233.68427 595.0
-238.65672 -234.46974 597.0
-235.25525 -235.25525 599.0
-231.82574 -236.04073 601.0
-228.7469 -237.21896 604.0
-226.36938 -239.18271 609.0
-223.557 -240.7537 613.0
-219.9732 -241.53917 615.0
-217.764 -243.89568 621.0
-214.4397 -245.0739 624.0
-211.07329 -246.25214 627.0
-207.66481 -247.43037 630.0
-203.56902 -247.82314 631.0
-199.45921 -248.21588 632.0
-195.95255 -249.39412 635.0
-191.80064 -249.78687 636.0
-187.63472 -250.17963 637.0
-183.45479 -250.57236 638.0
-179.82187 -251.75058 641.0
-176.1469 -252.92885 644.0
-172.42982 -254.10709 647.0
-168.67065 -255.28532 650.0
-147.89717 -258.82004 659.0
-143.27539 -258.82004 659.0
-139.0744 -259.60553 661.0
-134.84537 -260.39102 663.0
-130.3919 -260.78375 664.0
-126.113754 -261.56927 666.0
-121.62523 -261.96204 667.0
-117.12267 -262.35474 668.0
-260.02634 -239.05649 598.0
-255.40457 -238.65672 597.0
-250.79681 -238.25696 596.0
-245.78929 -237.45746 594.0
-242.43692 -238.25696 596.0
-238.65672 -238.65672 597.0
-234.46977 -238.65672 597.0
-231.82574 -240.25577 601.0
-228.7469 -241.45506 604.0
-226.36938 -243.45386 609.0
-223.9217 -245.45267 614.0
-221.04625 -247.0517 618.0
-218.11467 -248.65073 622.0
-214.4397 -249.45026 624.0
-211.07329 -250.64954 627.0
-207.33517 -251.44907 629.0
-203.56902 -252.24857 631.0
-199.45921 -252.64833 632.0
-195.64397 -253.44786 634.0
-191.80064 -254.24736 636.0
-187.63472 -254.64713 637.0
-183.45479 -255.04689 638.0
-179.54134 -255.8464 640.0
-175.59985 -256.64594 642.0
-172.42982 -258.64474 647.0
-168.41116 -259.44427 649.0
-164.61696 -260.64352 652.0
-160.28973 -261.0433 653.0
-156.18694 -261.84283 655.0
-152.05609 -262.64233 657.0
-147.67274 -263.04208 658.0
-143.05797 -263.04208 658.0
-138.65361 -263.44186 659.0
-134.4386 -264.24136 661.0
-130.19554 -265.0409 663.0
-125.73504 -265.44067 664.0
-121.44289 -266.24017 666.0
-117.12267 -267.0397 668.0
-286.6209 -244.47078 601.0
-284.75537 -246.50465 606.0
-280.50528 -246.50465 606.0
-260.02634 -243.25047 598.0
-255.40457 -242.84369 597.0
-250.79681 -242.43692 596.0
-246.20308 -242.03014 595.0
-242.43692 -242.43692 596.0
-238.65672 -242.84369 597.0
-234.46977 -242.84369 597.0
-232.21147 -244.87755 602.0
-229.50433 -246.50465 606.0
-226.74107 -248.13174 610.0
-223.9217 -249.75882 614.0
-221.40392 -251.79271 619.0
-218.11467 -253.01302 622.0
-214.4397 -253.82657 624.0
-211.07329 -255.04689 627.0
-207.00554 -255.45367 628.0
-203.24641 -256.2672 630.0
-199.45921 -257.08075 632.0
-195.02678 -257.08075 632.0
-191.19751 -257.89432 634.0
-187.34016 -258.70786 636.0
-183.16724 -259.11462 637.0
-178.98027 -259.5214 638.0
-175.32634 -260.74173 641.0
-171.63031 -261.96204 644.0
-167.89218 -263.18234 647.0
-164.112 -264.40268 650.0
-160.04427 -265.21622 652.0
-155.47159 -265.21622 652.0
-151.36179 -266.02975 654.0
-146.99945 -266.43655 655.0
-142.84056 -267.2501 657.0
-138.4432 -267.65686 658.0
-134.03183 -268.06363 659.0
-129.8028 -268.87717 661.0
-125.54568 -269.69073 663.0
-121.44289 -270.91107 666.0
-297.27414 -247.03064 597.0
-291.6144 -245.78929 594.0
-287.9324 -246.20306 595.0
-284.2364 -246.61685 596.0
-281.4661 -247.85822 599.0
-278.1909 -248.68579 601.0
-276.25522 -250.75473 606.0
-272.00513 -250.75473 606.0
-266.42953 -249.51337 603.0
-260.02634 -247.44443 598.0
-254.97675 -246.61685 596.0
-250.376 -246.20306 595.0
-246.20308 -246.20306 595.0
-242.43692 -246.61685 596.0
-238.65672 -247.03064 597.0
-234.86252 -247.44443 598.0
-232.21147 -249.09958 602.0
-229.50433 -250.75473 606.0
-226.74107 -252.40985 610.0
-224.2864 -254.4788 615.0
-221.40392 -256.13394 619.0
-218.11467 -257.3753 622.0
-214.09602 -257.7891 623.0
-211.07329 -259.44424 627.0
-207.00554 -259.85803 628.0
-202.92378 -260.27182 629.0
-199.1436 -261.0994 631.0
-195.02678 -261.51318 632.0
-191.19751 -262.34076 634.0
-187.04561 -262.75455 635.0
-182.87967 -263.16833 636.0
-178.98027 -263.9959 638.0
-175.05281 -264.8235 640.0
-171.3638 -266.06482 643.0
-167.63269 -267.30618 646.0
-163.35457 -267.71997 647.0
-159.30788 -268.54755 649.0
-154.99467 -268.96133 650.0
-151.13034 -270.2027 653.0
-146.99945 -271.03027 655.0
-142.40573 -271.03027 655.0
-138.4432 -272.27164 658.0
-134.03183 -272.68542 659.0
-129.8028 -273.513 661.0
-125.356316 -273.9268 662.0

