ply
format ascii 1.0
comment made by @arthurmuchir
element vertex 963
property float x
property float y
property float z
end_header
-88.07344 -104.84932 598.0
-84.44054 -105.55066 602.0
-80.08526 -105.37532 601.0
-76.122734 -105.72599 603.0
-91.80453 -108.49626 595.0
-87.92616 -108.860954 597.0
-84.01974 -109.22563 599.0
-79.818756 -109.22563 599.0
-75.99649 -109.77268 602.0
-72.25135 -110.50207 606.0
-96.13879 -112.85858 596.0
-91.95882 -112.85858 596.0
-87.778885 -112.85858 596.0
-83.739204 -113.04793 597.0
-79.818756 -113.42665 599.0
-75.870255 -113.80538 601.0
-71.89367 -114.1841 603.0
-99.98209 -116.64577 594.0
-95.81617 -116.64577 594.0
-91.65024 -116.64577 594.0
-87.6316 -116.84214 595.0
-83.59894 -117.03852 596.0
-79.818756 -117.62764 599.0
-75.74401 -117.82401 600.0
-103.622 -120.20153 591.0
-99.64545 -120.40491 592.0
-95.49356 -120.40491 592.0
-91.49594 -120.60829 593.0
-87.337036 -120.60829 593.0
-83.45867 -121.01507 595.0
-79.6855 -121.62524 598.0
-112.290474 -124.7672 593.0
-107.58453 -124.136 590.0
-103.44667 -124.136 590.0
-99.14049 -123.9256 589.0
-95.33225 -124.3464 591.0
-91.49594 -124.7672 593.0
-87.337036 -124.7672 593.0
-116.056656 -128.49127 591.0
-111.533035 -128.05644 589.0
-107.21984 -127.839035 588.0
-103.096 -127.839035 588.0
-99.14049 -128.05644 589.0
-95.170944 -128.27386 590.0
-91.34165 -128.7087 592.0
-87.337036 -128.9261 593.0
-119.59137 -131.96288 588.0
-115.46754 -131.96288 588.0
-111.15432 -131.73845 587.0
-107.03749 -131.73845 587.0
-102.92067 -131.73845 587.0
-99.14049 -132.18729 589.0
-95.33225 -132.63615 591.0
-91.34165 -132.86058 592.0
-83.54984 -140.71552 627.0
-79.27873 -140.93994 628.0
-142.6512 -130.76358 565.0
-125.67893 -129.60638 560.0
-123.08401 -135.39238 585.0
-118.9812 -135.39238 585.0
-114.87841 -135.39238 585.0
-110.7756 -135.39238 585.0
-107.03749 -135.85527 587.0
-103.096 -136.0867 588.0
-99.14049 -136.31815 589.0
-95.49356 -137.01247 592.0
-91.31361 -143.49278 620.0
-87.105606 -143.72423 621.0
-82.88358 -143.95567 622.0
-78.64753 -144.1871 623.0
-74.75512 -145.11287 627.0
-146.35423 -134.4877 564.0
-142.14624 -134.24924 563.0
-138.4432 -134.4877 564.0
-132.10316 -132.10315 554.0
-128.21777 -132.10315 554.0
-125.00565 -132.81851 557.0
-121.96888 -133.77232 561.0
-118.0344 -133.77232 561.0
-118.57443 -139.01831 583.0
-114.485664 -139.01831 583.0
-110.58624 -139.25676 584.0
-106.85515 -139.73367 586.0
-103.096 -140.21057 588.0
-99.14049 -140.44902 589.0
-90.72448 -146.88727 616.0
-86.68481 -147.36418 618.0
-82.483826 -147.60263 619.0
-78.521286 -148.318 622.0
-74.39744 -148.79489 624.0
-164.18915 -140.16147 571.0
-160.46507 -140.40694 572.0
-155.9064 -139.91602 570.0
-150.84279 -138.93414 566.0
-145.83525 -137.95227 562.0
-141.64128 -137.70682 561.0
-136.47948 -136.47948 556.0
-129.95708 -133.77934 545.0
-126.36625 -134.02481 546.0
-124.332375 -135.98854 554.0
-121.75147 -137.46135 560.0
-118.0344 -137.70682 561.0
-118.167656 -142.61613 581.0
-114.28929 -142.86162 582.0
-110.58624 -143.35254 584.0
-106.672806 -143.598 585.0
-103.096 -144.33441 588.0
-98.23577 -149.48921 609.0
-94.27322 -149.98015 611.0
-90.28264 -150.47107 613.0
-86.12373 -150.71654 614.0
-82.35057 -151.69841 618.0
-78.39506 -152.43481 621.0
-172.80154 -144.67105 573.0
-168.48831 -144.41856 572.0
-163.61406 -143.66113 569.0
-159.06241 -143.15616 567.0
-155.35936 -143.40865 568.0
-150.57628 -142.6512 565.0
-145.83525 -141.89377 562.0
-136.3392 -136.3392 540.0
-131.8156 -135.58177 537.0
-128.52635 -136.08673 539.0
-125.209045 -136.59169 541.0
-122.536964 -137.85408 546.0
-121.96888 -141.64128 561.0
-117.824005 -141.3888 560.0
-118.167656 -146.69089 581.0
-114.28929 -146.94336 582.0
-110.58624 -147.44833 584.0
-106.85515 -147.95328 586.0
-102.00192 -153.00288 606.0
-98.07447 -153.50784 608.0
-93.96464 -153.76033 609.0
-89.98808 -154.26529 611.0
-85.98347 -154.77025 613.0
-82.08406 -155.52768 616.0
-172.80154 -148.68968 573.0
-162.00801 -142.72133 550.0
-163.32652 -147.39221 568.0
-153.45174 -141.94286 547.0
-150.16249 -142.46185 549.0
-146.84518 -142.98082 551.0
-142.98083 -142.98082 551.0
-139.11649 -142.98082 551.0
-130.83374 -138.30995 533.0
-127.33409 -138.56944 534.0
-124.05185 -139.08842 536.0
-121.414825 -140.3859 541.0
-114.68204 -151.54411 584.0
-110.96495 -152.0631 586.0
-109.408005 -155.696 600.0
-105.375336 -155.95549 601.0
-101.49697 -156.47449 603.0
-97.751854 -157.25296 606.0
-93.65605 -157.51247 607.0
-89.840805 -158.29092 610.0
-85.8432 -158.80992 612.0
-180.30579 -145.77914 547.0
-176.14688 -145.51263 546.0
-172.31761 -145.51263 546.0
-168.48834 -145.51263 546.0
-164.96063 -145.77914 547.0
-161.12431 -145.77914 547.0
-157.57558 -146.04564 548.0
-153.73227 -146.04564 548.0
-149.88896 -146.04564 548.0
-146.31218 -146.31215 549.0
-142.20235 -146.04564 548.0
-133.05696 -140.449 527.0
-129.36093 -140.449 527.0
-126.14182 -140.98203 529.0
-123.58897 -142.31456 534.0
-120.96597 -143.6471 539.0
-117.23489 -159.10448 597.0
-112.85855 -158.83798 596.0
-108.86096 -159.10448 597.0
-105.02467 -159.6375 599.0
-101.160324 -160.1705 601.0
-97.26794 -160.70352 603.0
-93.65605 -161.76955 607.0
-89.69352 -162.30255 609.0
-183.13219 -148.79488 544.0
-179.3169 -148.79488 544.0
-175.50165 -148.79488 544.0
-171.6864 -148.79488 544.0
-167.87115 -148.79488 544.0
-164.35747 -149.0684 545.0
-160.82976 -149.34192 546.0
-157.00047 -149.34192 546.0
-153.1712 -149.34192 546.0
-149.61545 -149.61543 547.0
-145.77916 -149.61543 547.0
-141.94286 -149.61543 547.0
-132.29951 -143.32446 524.0
-128.37907 -143.05095 523.0
-124.949554 -143.32446 524.0
-116.4494 -162.19736 593.0
-112.479836 -162.47087 594.0
-108.49627 -162.7444 595.0
-104.674 -163.29143 597.0
-100.992004 -164.112 600.0
-97.10662 -164.65904 602.0
-93.501755 -165.75311 606.0
-186.94743 -152.61012 544.0
-182.4589 -152.04906 542.0
-178.32803 -151.76852 541.0
-174.53381 -151.76852 541.0
-171.0552 -152.04906 542.0
-167.56256 -152.32959 543.0
-164.05591 -152.61012 544.0
-160.24063 -152.61012 544.0
-156.42538 -152.61012 544.0
-153.1712 -153.17119 546.0
-149.34193 -153.17119 546.0
-145.77916 -153.45174 547.0
-141.94286 -153.45174 547.0
-131.79456 -146.43839 522.0
-127.88814 -146.15785 521.0
-124.23419 -146.15785 521.0
-120.81169 -146.43839 522.0
-116.056656 -165.79518 591.0
-112.10112 -166.07573 592.0
-108.13157 -166.35626 593.0
-104.49867 -167.19786 596.0
-100.82369 -168.03946 599.0
-96.94532 -168.60052 601.0
-190.412 -156.13782 543.0
-186.26012 -155.85028 542.0
-181.78561 -155.27519 540.0
-177.99841 -155.27519 540.0
-174.21121 -155.27519 540.0
-170.42401 -155.27519 540.0
-166.9454 -155.56273 541.0
-163.75433 -156.13782 543.0
-160.24063 -156.42537 544.0
-156.71294 -156.71292 545.0
-153.1712 -157.00047 546.0
-149.34193 -157.00047 546.0
-146.04567 -157.57556 548.0
-142.46184 -157.8631 549.0
-131.54208 -149.8118 521.0
-127.64267 -149.52426 520.0
-124.23419 -149.8118 521.0
-120.81169 -150.09935 522.0
-119.59137 -169.07742 588.0
-115.6639 -169.36497 589.0
-112.10112 -170.22762 592.0
-108.13157 -170.51517 593.0
-104.49867 -171.37779 596.0
-100.655365 -171.9529 598.0
-193.50488 -159.35696 541.0
-189.36 -159.06241 540.0
-184.54185 -158.17873 537.0
-180.7757 -158.17873 537.0
-177.00952 -158.17873 537.0
-173.56598 -158.4733 538.0
-170.42401 -159.06241 540.0
-166.63681 -159.06241 540.0
-163.15118 -159.35696 541.0
-159.94608 -159.94609 543.0
-157.00047 -160.82976 546.0
-153.1712 -160.82976 546.0
-149.61545 -161.12433 547.0
-146.57867 -162.00801 550.0
-143.24033 -162.59714 552.0
-131.28961 -153.17122 520.0
-140.40694 -168.48833 572.0
-123.995735 -153.17122 520.0
-126.53456 -171.43393 582.0
-122.873604 -172.02304 584.0
-119.38798 -172.90672 587.0
-115.6639 -173.49585 589.0
-111.7224 -173.79042 590.0
-107.94923 -174.37953 592.0
-192.07416 -161.94489 537.0
-188.30801 -161.94489 537.0
-184.1982 -161.64333 536.0
-179.76578 -161.04016 534.0
-176.35027 -161.34174 535.0
-172.92075 -161.64333 536.0
-169.7928 -162.24646 538.0
-166.63681 -162.84961 540.0
-163.15118 -163.15118 541.0
-160.24063 -164.05591 544.0
-157.00047 -164.65904 546.0
-153.45174 -164.96062 547.0
-154.5388 -170.38895 565.0
-151.1093 -170.99208 567.0
-147.39221 -171.29366 568.0
-143.66112 -171.59523 569.0
-140.16147 -172.19838 571.0
-136.63377 -172.80153 573.0
-133.07802 -173.40468 575.0
-129.49419 -174.00783 577.0
-126.09974 -174.91254 580.0
-122.452805 -175.51569 582.0
-118.9812 -176.42041 585.0
-115.46754 -177.32513 588.0
-111.34367 -177.32513 588.0
-107.40218 -177.62671 589.0
-195.84032 -165.71104 537.0
-191.71648 -165.40247 536.0
-187.25601 -164.78528 534.0
-183.5109 -164.78528 534.0
-179.76578 -164.78528 534.0
-176.02063 -164.78528 534.0
-172.59814 -165.09387 535.0
-169.4772 -165.71104 537.0
-166.63681 -166.6368 540.0
-163.15118 -166.94539 541.0
-160.24063 -167.87115 544.0
-157.28802 -168.7969 547.0
-158.22081 -174.04288 564.0
-154.5388 -174.35147 565.0
-150.84279 -174.66006 566.0
-147.39221 -175.27724 568.0
-143.66112 -175.58582 569.0
-140.16147 -176.20299 571.0
-136.39531 -176.51158 572.0
-132.84657 -177.12875 574.0
-129.49419 -178.0545 577.0
-125.88232 -178.67168 579.0
-122.2424 -179.28886 581.0
-118.777824 -180.21461 584.0
-115.07479 -180.83179 586.0
-200.34991 -170.1084 539.0
-194.74623 -168.5304 534.0
-190.64345 -168.2148 533.0
-186.90533 -168.2148 533.0
-182.82358 -167.8992 532.0
-179.0925 -167.8992 532.0
-175.69101 -168.2148 533.0
-172.59814 -168.846 535.0
-169.4772 -169.4772 537.0
-166.32823 -170.1084 539.0
-163.15118 -170.7396 541.0
-160.5352 -172.002 545.0
-157.28802 -172.6332 547.0
-157.37921 -177.0516 561.0
-154.5388 -178.314 565.0
-150.84279 -178.6296 566.0
-147.13272 -178.9452 567.0
-143.66112 -179.5764 569.0
-140.16147 -180.2076 571.0
-136.39531 -180.5232 572.0
-132.61513 -180.8388 573.0
-129.26976 -181.7856 576.0
-125.66491 -182.4168 578.0
-122.032005 -183.048 580.0
-118.37105 -183.6792 582.0
-198.49138 -172.27551 534.0
-194.01686 -171.6303 532.0
-190.28577 -171.6303 532.0
-186.20401 -171.30768 531.0
-182.13628 -170.98506 530.0
-178.75584 -171.30768 531.0
-175.36139 -171.6303 532.0
-172.59814 -172.59813 535.0
-169.1616 -172.92075 536.0
-166.63681 -174.2112 540.0
-163.45276 -174.85643 542.0
-160.82976 -176.14688 546.0
-157.57558 -176.7921 548.0
-157.37921 -180.98608 561.0
-154.26529 -181.95392 564.0
-150.57628 -182.27654 565.0
-146.87323 -182.59914 566.0
-143.40865 -183.24437 568.0
-139.67053 -183.56699 569.0
-135.91841 -183.8896 570.0
-132.3837 -184.53482 572.0
-128.8209 -185.18005 574.0
-125.01267 -185.50266 575.0
-121.8216 -186.79312 579.0
-117.96427 -187.11572 580.0
-103.27134 -190.01924 589.0
-213.26144 -178.98727 543.0
-208.296 -177.99838 540.0
-202.2365 -176.02063 534.0
-198.11967 -175.69101 533.0
-193.65216 -175.03175 531.0
-189.5704 -174.70213 530.0
-185.85333 -174.70213 530.0
-182.13628 -174.70213 530.0
-178.4192 -174.70213 530.0
-175.36139 -175.36137 532.0
-172.27551 -176.02063 534.0
-169.4772 -177.00952 537.0
-166.63681 -177.99838 540.0
-163.75433 -178.98727 543.0
-161.71342 -180.96504 549.0
-160.1635 -183.60205 557.0
-157.37921 -184.92055 561.0
-153.99176 -185.57982 563.0
-150.57628 -186.23906 565.0
-146.61374 -186.23906 565.0
-142.6512 -186.23906 565.0
-139.42508 -187.22794 568.0
-135.67996 -187.55757 569.0
-131.68938 -187.55757 569.0
-128.37206 -188.54645 572.0
-124.57784 -188.87607 573.0
-121.19041 -189.86496 576.0
-117.5575 -190.52422 578.0
-114.092926 -191.51308 581.0
-110.01815 -191.51308 581.0
-107.21984 -193.82047 588.0
-103.27134 -194.1501 589.0
-99.30881 -194.47974 590.0
-95.97748 -196.12785 595.0
-91.95882 -196.45749 596.0
-87.92616 -196.78712 597.0
-84.16 -197.77599 600.0
-80.88478 -200.08337 607.0
-76.880165 -200.74263 609.0
-72.728264 -201.07227 610.0
-245.07394 -183.80544 546.0
-242.12834 -184.4787 548.0
-238.28502 -184.4787 548.0
-216.66992 -182.45886 542.0
-212.0832 -181.78558 540.0
-207.13881 -180.77567 537.0
-202.2365 -179.76575 534.0
-197.74796 -179.09247 532.0
-193.28748 -178.41919 530.0
-189.21272 -178.08255 529.0
-185.50267 -178.08255 529.0
-182.13628 -178.41919 530.0
-178.4192 -178.41919 530.0
-175.36139 -179.09247 532.0
-172.27551 -179.76575 534.0
-169.7928 -181.1123 538.0
-166.9454 -182.12224 541.0
-163.45276 -182.45886 542.0
-163.77536 -187.17183 556.0
-160.1635 -187.50847 557.0
-157.09868 -188.51839 560.0
-153.71825 -189.19167 562.0
-150.04327 -189.5283 563.0
-146.35423 -189.86496 564.0
-142.6512 -190.20158 565.0
-138.68867 -190.20158 565.0
-134.72614 -190.20158 565.0
-131.45793 -191.2115 568.0
-127.69878 -191.54816 569.0
-124.36043 -192.55807 572.0
-120.559204 -192.8947 573.0
-117.35411 -194.24127 577.0
-114.092926 -195.58783 581.0
-110.20752 -195.92447 582.0
-106.672806 -196.93439 585.0
-103.096 -197.9443 588.0
-99.14049 -198.28096 589.0
-95.33225 -198.95422 591.0
-91.65024 -199.96416 594.0
-87.778885 -200.63742 596.0
-84.01974 -201.64735 599.0
-80.35177 -202.99391 603.0
-76.50146 -204.00381 606.0
-72.728264 -205.35039 610.0
-249.51337 -182.47993 531.0
-244.86353 -181.79262 529.0
-242.52107 -182.8236 532.0
-239.6877 -183.5109 534.0
-241.24466 -187.63474 546.0
-237.41536 -187.63474 546.0
-228.9152 -186.94742 544.0
-225.92754 -187.63474 546.0
-220.06439 -185.91647 541.0
-215.8704 -185.57281 540.0
-211.29771 -184.88551 538.0
-205.98161 -183.5109 534.0
-201.85776 -183.16724 533.0
-197.37625 -182.47993 531.0
-192.92276 -181.79262 529.0
-189.21272 -181.79262 529.0
-185.50267 -181.79262 529.0
-182.13628 -182.13629 530.0
-178.4192 -182.13629 530.0
-175.36139 -182.8236 532.0
-172.59814 -183.85454 535.0
-170.10841 -185.22916 539.0
-167.56256 -186.60378 543.0
-164.96063 -187.9784 547.0
-163.4808 -190.72762 555.0
-160.1635 -191.41492 557.0
-156.53761 -191.75858 558.0
-152.89769 -192.10222 559.0
-149.24374 -192.44588 560.0
-145.83525 -193.1332 562.0
-142.14624 -193.47684 563.0
-138.4432 -193.8205 564.0
-134.48769 -193.8205 564.0
-130.76361 -194.16414 565.0
-127.249916 -194.85144 567.0
-123.925606 -195.88242 570.0
-120.3488 -196.56972 572.0
-117.15073 -197.94434 576.0
-113.70017 -198.9753 579.0
-110.01815 -199.6626 581.0
-106.308105 -200.34991 583.0
-102.74534 -201.38087 586.0
-98.97217 -202.06818 588.0
-95.009636 -202.41182 589.0
-91.34165 -203.4428 592.0
-87.778885 -204.8174 596.0
-83.87947 -205.5047 598.0
-80.08526 -206.53568 601.0
-76.24897 -207.56662 604.0
-261.91995 -184.45067 526.0
-258.23096 -184.45067 526.0
-255.02585 -184.80135 527.0
-251.32983 -184.80135 527.0
-247.63379 -184.80135 527.0
-243.93776 -184.80135 527.0
-240.6976 -185.15201 528.0
-238.78998 -186.55467 532.0
-239.91914 -190.41202 543.0
-236.5457 -190.76266 544.0
-232.30266 -190.41202 543.0
-228.07361 -190.06134 542.0
-223.44481 -189.36002 540.0
-218.84407 -188.65868 538.0
-214.67113 -188.30801 537.0
-210.90497 -188.30801 537.0
-205.98161 -187.25601 534.0
-201.85776 -186.90533 533.0
-197.37625 -186.20401 531.0
-192.92276 -185.50267 529.0
-189.21272 -185.50267 529.0
-185.50267 -185.50267 529.0
-182.13628 -185.85335 530.0
-178.75584 -186.20401 531.0
-176.02063 -187.25601 534.0
-173.24336 -188.30801 537.0
-170.42401 -189.36002 540.0
-167.87115 -190.76266 544.0
-166.46849 -193.56801 552.0
-163.18623 -194.26935 554.0
-159.30086 -194.26935 554.0
-155.97653 -194.97067 556.0
-152.35065 -195.32133 557.0
-148.71074 -195.67201 558.0
-145.05676 -196.02267 559.0
-141.38881 -196.37334 560.0
-137.7068 -196.72401 561.0
-134.01079 -197.07468 562.0
-130.53217 -197.77602 564.0
-126.80106 -198.12668 565.0
-123.70818 -199.52934 569.0
-120.138405 -200.23067 571.0
-116.54057 -200.932 573.0
-113.30743 -202.33467 577.0
-109.63944 -203.03601 579.0
-105.94341 -203.73734 581.0
-102.39467 -204.78934 584.0
-98.80385 -205.84134 587.0
-95.009636 -206.54266 589.0
-91.34165 -207.59467 592.0
-87.6316 -208.64667 595.0
-83.739204 -209.348 597.0
-79.952 -210.40001 600.0
-269.29797 -188.13968 526.0
-265.104 -187.782 525.0
-261.422 -187.782 525.0
-257.74002 -187.782 525.0
-254.05801 -187.782 525.0
-249.89911 -187.42433 524.0
-245.75421 -187.06665 523.0
-242.08626 -187.06665 523.0
-238.41827 -187.06665 523.0
-234.7503 -187.06665 523.0
-238.59361 -193.1472 540.0
-234.80641 -193.1472 540.0
-231.01921 -193.1472 540.0
-226.39041 -192.43185 538.0
-222.61723 -192.43185 538.0
-218.4373 -192.07416 537.0
-214.27136 -191.71648 536.0
-209.72672 -191.00113 534.0
-205.98161 -191.00113 534.0
-201.85776 -190.64345 533.0
-197.00455 -189.5704 530.0
-193.28748 -189.5704 530.0
-189.21272 -189.21274 529.0
-185.50267 -189.21274 529.0
-182.13628 -189.5704 530.0
-179.0925 -190.28577 532.0
-176.02063 -191.00113 534.0
-173.56598 -192.43185 538.0
-171.6864 -194.57793 544.0
-169.1055 -196.00865 548.0
-166.16692 -197.08168 551.0
-162.30257 -197.08168 551.0
-159.01332 -197.79704 553.0
-155.41547 -198.15472 554.0
-151.53009 -198.15472 554.0
-147.91121 -198.5124 555.0
-144.27829 -198.87009 556.0
-140.63136 -199.22777 557.0
-137.21587 -199.94313 559.0
-133.77232 -200.65848 561.0
-130.06929 -201.01616 562.0
-126.80106 -202.0892 565.0
-123.27336 -202.80457 567.0
-120.138405 -204.23528 571.0
-116.74396 -205.30833 574.0
-113.30743 -206.38136 577.0
-109.63944 -207.09673 579.0
-106.12576 -208.16977 582.0
-102.39467 -208.88513 584.0
-98.80385 -209.95816 587.0
-95.009636 -210.67352 589.0
-277.69995 -190.00522 521.0
-274.04602 -190.00522 521.0
-269.87308 -189.64053 520.0
-267.2501 -190.36992 522.0
-264.0941 -190.73462 523.0
-260.42612 -190.73462 523.0
-255.77628 -190.00522 521.0
-252.12234 -190.00522 521.0
-248.46838 -190.00522 521.0
-242.93486 -188.54646 517.0
-239.77185 -188.91115 518.0
-237.05067 -189.64053 520.0
-233.40375 -189.64053 520.0
-236.82625 -195.47562 536.0
-233.50192 -195.84032 537.0
-229.73576 -195.84032 537.0
-225.54881 -195.47562 536.0
-221.37587 -195.11093 535.0
-217.21698 -194.74625 534.0
-213.47183 -194.74625 534.0
-209.72672 -194.74625 534.0
-205.98161 -194.74625 534.0
-201.85776 -194.38156 533.0
-197.00455 -193.28748 530.0
-193.28748 -193.28748 530.0
-189.5704 -193.28748 530.0
-185.85333 -193.28748 530.0
-182.47993 -193.65216 531.0
-179.76578 -194.74625 534.0
-176.35027 -195.11093 535.0
-174.21121 -196.9344 540.0
-172.002 -198.75787 545.0
-168.79692 -199.48726 547.0
-165.2622 -199.85196 548.0
-161.71342 -200.21664 549.0
-158.4382 -200.94603 551.0
-155.13493 -201.67542 553.0
-151.53009 -202.0401 554.0
-147.64471 -202.0401 554.0
-143.7593 -202.0401 554.0
-140.37889 -202.7695 556.0
-136.9704 -203.49889 558.0
-133.53387 -204.22827 560.0
-130.06929 -204.95766 562.0
-126.80106 -206.05173 565.0
-123.27336 -206.78111 567.0
-119.928 -207.8752 570.0
-116.54057 -208.96928 573.0
-113.30743 -210.42805 577.0
-281.72562 -191.42892 515.0
-279.1938 -192.17235 517.0
-276.6339 -192.91576 519.0
-271.94202 -192.17235 517.0
-268.31613 -192.17235 517.0
-264.69022 -192.17235 517.0
-259.54944 -191.05722 514.0
-255.9446 -191.05722 514.0
-252.83067 -191.42892 515.0
-248.7349 -191.05722 514.0
-245.13005 -191.05722 514.0
-241.52516 -191.05722 514.0
-238.84608 -191.80063 516.0
-235.68307 -192.17235 517.0
-232.05719 -192.17235 517.0
-235.94258 -198.49135 534.0
-232.19743 -198.49135 534.0
-228.45232 -198.49135 534.0
-224.70721 -198.49135 534.0
-220.9621 -198.49135 534.0
-216.81021 -198.11964 533.0
-212.67232 -197.74794 532.0
-209.33398 -198.11964 533.0
-205.21014 -197.74794 532.0
-201.47905 -197.74794 532.0
-197.00455 -197.00453 530.0
-193.28748 -197.00453 530.0
-189.5704 -197.00453 530.0
-186.20401 -197.37624 531.0
-183.16724 -198.11964 533.0
-179.76578 -198.49135 534.0
-177.66876 -200.3499 539.0
-175.17905 -201.83672 543.0
-171.6864 -202.20842 544.0
-168.48834 -202.95183 546.0
-164.65904 -202.95183 546.0
-161.12431 -203.32355 547.0
-157.86311 -204.06696 549.0
-154.57387 -204.81038 551.0
-150.70953 -204.81038 551.0
-147.1117 -205.18208 552.0
-143.4998 -205.55379 553.0
-139.87392 -205.92549 554.0
-136.72495 -207.04062 557.0
-133.53387 -208.15573 560.0
-130.06929 -208.89914 562.0
-126.80106 -210.01427 565.0
-123.27336 -210.75768 567.0
-281.1786 -194.66206 514.0
-278.11374 -195.0408 515.0
-273.96884 -194.66206 514.0
-270.364 -194.66206 514.0
-267.79715 -195.41953 516.0
-262.64233 -194.28336 513.0
-258.53952 -193.90463 512.0
-254.45074 -193.52592 511.0
-250.86694 -193.52592 511.0
-247.28314 -193.52592 511.0
-243.69933 -193.52592 511.0
-240.1155 -193.52592 511.0
-236.99457 -193.90463 512.0
-235.2272 -195.41953 516.0
-232.05719 -195.79823 517.0
-235.94258 -202.23647 534.0
-231.76262 -201.85776 533.0
-228.02452 -201.85776 533.0
-224.2864 -201.85776 533.0
-220.13452 -201.47903 532.0
-215.99666 -201.10031 531.0
-212.27257 -201.10031 531.0
-208.54848 -201.10031 531.0
-204.43867 -200.7216 530.0
-200.7216 -200.7216 530.0
-197.00455 -200.7216 530.0
-193.28748 -200.7216 530.0
-189.92807 -201.10031 531.0
-186.55467 -201.47903 532.0
-183.5109 -202.23647 534.0
-180.7757 -203.37263 537.0
-177.99841 -204.5088 540.0
-174.85643 -205.26624 542.0
-171.6864 -206.02367 544.0
-167.87115 -206.02367 544.0
-164.65904 -206.78111 546.0
-160.82976 -206.78111 546.0
-157.28802 -207.15984 547.0
-154.0128 -207.91727 549.0
-150.436 -208.296 550.0
-147.1117 -209.05344 552.0
-143.4998 -209.43216 553.0
-139.87392 -209.81087 554.0
-136.9704 -211.32576 558.0
-133.53387 -212.0832 560.0
-130.30074 -213.21935 563.0
-277.89633 -195.95253 508.0
-275.95364 -197.10973 511.0
-272.3698 -197.10973 511.0
-268.26 -196.72398 510.0
-263.64523 -195.95253 508.0
-260.59445 -196.33826 509.0
-256.51968 -195.95253 508.0
-252.95692 -195.95253 508.0
-249.88507 -196.33826 509.0
-247.28314 -197.10973 511.0
-243.69933 -197.10973 511.0
-240.1155 -197.10973 511.0
-236.99457 -197.49545 512.0
-234.31548 -198.26692 514.0
-231.15947 -198.65266 515.0
-228.43129 -199.42413 517.0
-230.45815 -204.43866 530.0
-226.74107 -204.43866 530.0
-223.024 -204.43866 530.0
-218.89316 -204.05293 529.0
-215.18312 -204.05293 529.0
-211.47304 -204.05293 529.0
-208.15575 -204.43866 530.0
-204.43867 -204.43866 530.0
-200.7216 -204.43866 530.0
-197.00455 -204.43866 530.0
-193.65216 -204.82439 531.0
-190.28577 -205.21013 532.0
-187.25601 -205.98158 534.0
-183.85454 -206.36732 535.0
-181.11234 -207.52454 538.0
-177.99841 -208.29599 540.0
-174.21121 -208.29599 540.0
-171.0552 -209.06746 542.0
-167.56256 -209.45319 543.0
-164.05591 -209.83893 544.0
-160.5352 -210.22466 545.0
-157.00047 -210.61038 546.0
-153.45174 -210.99612 547.0
-150.16249 -211.7676 549.0
-147.1117 -212.92479 552.0
-143.7593 -213.69626 554.0
-140.37889 -214.46773 556.0
-136.9704 -215.23918 558.0
-133.77232 -216.3964 561.0
-277.3493 -199.12256 507.0
-273.2535 -198.7298 506.0
-269.17175 -198.33705 505.0
-266.156 -198.7298 506.0
-262.60727 -198.7298 506.0
-259.5705 -199.12256 507.0
-256.0147 -199.12256 507.0
-252.45897 -199.12256 507.0
-249.39415 -199.51529 508.0
-246.31529 -199.90805 509.0
-243.22241 -200.30078 510.0
-239.1757 -199.90805 509.0
-235.14305 -199.51529 508.0
-232.03615 -199.90805 509.0
-229.36407 -200.69354 511.0
-225.78026 -200.69354 511.0
-229.58849 -207.37022 528.0
-226.31325 -207.76297 529.0
-222.1824 -207.37022 528.0
-218.47937 -207.37022 528.0
-215.18312 -207.76297 529.0
-211.47304 -207.76297 529.0
-208.15575 -208.15572 530.0
-204.43867 -208.15572 530.0
-200.7216 -208.15572 530.0
-197.74796 -208.94121 532.0
-194.38155 -209.33397 533.0
-191.00111 -209.7267 534.0
-187.25601 -209.7267 534.0
-184.1982 -210.51219 536.0
-181.11234 -211.2977 538.0
-177.66876 -211.69044 539.0
-174.21121 -212.08319 540.0
-170.42401 -212.08319 540.0
-166.9454 -212.47592 541.0
-163.75433 -213.26143 543.0
-160.24063 -213.65417 544.0
-156.71294 -214.04692 545.0
-153.1712 -214.43967 546.0
-150.16249 -215.6179 549.0
-147.3782 -217.18889 553.0
-143.7593 -217.58165 554.0
-140.63136 -218.75989 557.0
-273.52002 -199.88002 500.0
-271.09338 -200.67953 502.0
-268.63873 -201.47905 504.0
-265.104 -201.47905 504.0
-261.5693 -201.47905 504.0
-258.03458 -201.47905 504.0
-255.50977 -202.27856 506.0
-250.96512 -201.47905 504.0
-246.93947 -201.0793 503.0
-243.89569 -201.47905 504.0
-240.83788 -201.87881 505.0
-237.29614 -201.87881 505.0
-234.21729 -202.27856 506.0
-231.1244 -202.67833 507.0
-228.0175 -203.0781 508.0
-232.8497 -210.67352 527.0
-228.71883 -210.27376 526.0
-225.45763 -210.67352 527.0
-221.76161 -210.67352 527.0
-218.47937 -211.0733 528.0
-215.18312 -211.47305 529.0
-211.47304 -211.47305 529.0
-208.15575 -211.87282 530.0
-205.21014 -212.67233 532.0
-201.85776 -213.0721 533.0
-198.49138 -213.47185 534.0
-194.74623 -213.47185 534.0
-191.35881 -213.87161 535.0
-187.60667 -213.87161 535.0
-184.54185 -214.67113 537.0
-180.7757 -214.67113 537.0
-177.33914 -215.07089 538.0
-174.21121 -215.8704 540.0
-170.42401 -215.8704 540.0
-166.9454 -216.27017 541.0
-163.75433 -217.0697 543.0
-159.94608 -217.0697 543.0
-157.00047 -218.26897 546.0
-153.45174 -218.66873 547.0
-150.70953 -220.26776 551.0
-147.64471 -221.46706 554.0
-271.8789 -202.16635 497.0
-269.4733 -202.97989 499.0
-265.97366 -202.97989 499.0
-264.052 -204.20023 502.0
-260.5313 -204.20023 502.0
-255.98668 -203.38667 500.0
-252.98497 -203.79344 501.0
-249.96924 -204.20023 502.0
-246.44855 -204.20023 502.0
-242.92786 -204.20023 502.0
-239.40717 -204.20023 502.0
-235.88646 -204.20023 502.0
-232.36577 -204.20023 502.0
-229.7568 -205.01376 504.0
-226.67094 -205.42055 505.0
-231.966 -213.55602 525.0
-228.71883 -213.96278 526.0
-225.45763 -214.36955 527.0
-221.76161 -214.36955 527.0
-218.89316 -215.18309 529.0
-215.18312 -215.18309 529.0
-212.67232 -216.40341 532.0
-209.33398 -216.8102 533.0
-205.59587 -216.8102 533.0
-202.2365 -217.21696 534.0
-198.49138 -217.21696 534.0
-195.11095 -217.62375 535.0
-191.71648 -218.03052 536.0
-187.95734 -218.03052 536.0
-184.54185 -218.4373 537.0
-180.7757 -218.4373 537.0
-177.33914 -218.84407 538.0
-174.21121 -219.6576 540.0
-170.42401 -219.6576 540.0
-167.25398 -220.47116 542.0
-163.75433 -220.87793 543.0
-160.24063 -221.28471 544.0
-157.00047 -222.09824 546.0
-154.0128 -223.31856 549.0
-150.98305 -224.5389 552.0
-271.33185 -205.23819 496.0
-269.4733 -206.47955 499.0
-264.90762 -205.65198 497.0
-260.896 -205.23819 496.0
-257.9364 -205.65198 497.0
-254.45076 -205.65198 497.0
-251.47008 -206.06577 498.0
-248.47539 -206.47955 499.0
-245.46667 -206.89334 500.0
-242.44394 -207.30711 501.0
-238.93025 -207.30711 501.0
-235.41656 -207.30711 501.0
-232.36577 -207.7209 502.0
-228.84508 -207.7209 502.0
-226.22209 -208.54848 504.0
-231.966 -217.238 525.0
-228.71883 -217.6518 526.0
-225.45763 -218.06558 527.0
-222.60321 -218.89316 529.0
-218.89316 -218.89316 529.0
-215.99666 -219.72073 531.0
-213.07208 -220.54831 533.0
-209.72672 -220.9621 534.0
-205.98161 -220.9621 534.0
-202.99394 -221.78964 536.0
-199.23479 -221.78964 536.0
-195.47563 -221.78964 536.0
-191.71648 -221.78964 536.0
-187.95734 -221.78964 536.0
-184.54185 -222.20343 537.0
-180.7757 -222.20343 537.0
-177.66876 -223.031 539.0
-174.21121 -223.4448 540.0
-170.73961 -223.85858 541.0
-167.56256 -224.68617 543.0
-164.05591 -225.09996 544.0
-160.5352 -225.51375 545.0

