ply
format ascii 1.0
comment made by @arthurmuchir
element vertex 856
property float x
property float y
property float z
end_header
-171.0552 -110.23558 542.0
-167.56256 -110.438965 543.0
-164.65904 -111.04912 546.0
-160.82976 -111.04912 546.0
-174.53381 -113.8264 541.0
-171.0552 -114.0368 542.0
-167.87115 -114.4576 544.0
-164.65904 -114.8784 546.0
-160.82976 -114.8784 546.0
-146.93634 -107.5144 511.0
-142.51094 -106.8832 508.0
-173.56598 -116.96836 538.0
-170.42401 -117.4032 540.0
-166.9454 -117.62061 541.0
-164.05591 -118.27285 544.0
-160.82976 -118.70768 546.0
-145.78616 -110.22855 507.0
-141.94987 -110.01114 506.0
-138.40112 -110.01114 506.0
-181.11234 -120.74154 538.0
-176.6799 -120.29268 536.0
-172.92075 -120.29268 536.0
-170.10841 -120.965965 539.0
-166.63681 -121.190384 540.0
-163.75433 -121.86367 543.0
-150.2256 -114.45759 510.0
-145.78616 -113.78432 507.0
-142.23041 -113.78432 507.0
-138.40112 -113.55988 506.0
-137.27197 -118.7217 529.0
-133.8144 -118.94613 530.0
-176.02063 -123.58895 534.0
-172.27551 -123.58895 534.0
-170.42401 -124.977585 540.0
-166.63681 -124.977585 540.0
-164.05591 -125.90335 544.0
-149.93103 -117.802956 509.0
-145.78616 -117.34007 507.0
-142.23041 -117.34007 507.0
-138.67465 -117.34007 507.0
-135.1189 -117.34007 507.0
-136.234 -121.50599 525.0
-133.30943 -122.2003 528.0
-131.07921 -123.58895 534.0
-126.85718 -123.12607 532.0
-193.28748 -123.99574 520.0
-188.54645 -123.28039 517.0
-168.40416 -124.47265 522.0
-165.0588 -124.711105 523.0
-162.3166 -125.42646 526.0
-159.23074 -125.90338 528.0
-155.82224 -126.14182 529.0
-145.78616 -120.89585 507.0
-142.51094 -121.13431 508.0
-139.2217 -121.37276 509.0
-136.18492 -121.84966 511.0
-134.67703 -123.75729 519.0
-131.54208 -124.2342 521.0
-128.62454 -124.949554 524.0
-126.14182 -126.14182 529.0
-199.42413 -126.90627 517.0
-196.17696 -127.15174 518.0
-192.91579 -127.39721 519.0
-189.64053 -127.64267 520.0
-186.35127 -127.888145 521.0
-181.996 -127.39721 519.0
-178.01244 -127.15174 518.0
-174.37953 -127.15174 518.0
-171.73549 -127.888145 521.0
-168.72678 -128.37907 523.0
-165.3744 -128.62454 524.0
-162.00801 -128.87001 525.0
-158.92915 -129.36095 527.0
-155.82224 -129.85187 529.0
-152.11218 -129.85187 529.0
-142.79147 -124.94254 509.0
-139.76872 -125.43347 511.0
-136.45143 -125.67894 512.0
-133.89856 -126.66081 516.0
-131.28961 -127.64267 520.0
-128.37907 -128.37907 523.0
-125.66492 -129.36095 527.0
-122.663216 -130.09734 530.0
-199.80988 -130.78465 518.0
-196.5557 -131.03712 519.0
-192.91579 -131.03712 519.0
-190.00523 -131.54208 521.0
-186.70897 -131.79457 522.0
-181.29468 -130.53217 517.0
-178.01244 -130.78465 518.0
-175.05281 -131.2896 520.0
-171.73549 -131.54208 521.0
-168.40416 -131.79457 522.0
-165.3744 -132.29953 524.0
-162.00801 -132.552 525.0
-158.92915 -133.05696 527.0
-155.52768 -133.30945 528.0
-152.11218 -133.56194 529.0
-141.66934 -127.5024 505.0
-138.40112 -127.75488 506.0
-135.91841 -128.7648 510.0
-132.86058 -129.26976 512.0
-130.53217 -130.53217 517.0
-127.88814 -131.54208 521.0
-125.188 -132.552 525.0
-122.43177 -133.56194 529.0
-211.445 -132.60109 511.0
-208.26796 -132.8606 512.0
-205.47664 -133.37958 514.0
-202.26454 -133.63907 515.0
-199.42413 -134.15807 517.0
-195.79825 -134.15807 517.0
-192.54407 -134.41756 518.0
-189.64053 -134.93652 520.0
-186.35127 -135.19603 521.0
-182.34668 -134.93652 520.0
-178.69974 -134.93652 520.0
-175.05281 -134.93652 520.0
-171.73549 -135.19603 521.0
-168.08154 -135.19603 521.0
-165.69 -136.234 525.0
-162.00801 -136.234 525.0
-163.75433 -140.90488 543.0
-159.94608 -140.90488 543.0
-156.71294 -141.42387 545.0
-141.38881 -130.78465 504.0
-138.12761 -131.04413 505.0
-135.1189 -131.56311 507.0
-132.3416 -132.3416 510.0
-130.0272 -133.63907 515.0
-127.64267 -134.93652 520.0
-124.23419 -135.19603 521.0
-213.7664 -135.38539 508.0
-211.0312 -135.9184 510.0
-207.86119 -136.1849 511.0
-205.07687 -136.71791 513.0
-201.87178 -136.98442 514.0
-198.65268 -137.25093 515.0
-195.79825 -137.78394 517.0
-192.17236 -137.78394 517.0
-189.27583 -138.31696 519.0
-185.9936 -138.58347 520.0
-182.69734 -138.84998 521.0
-179.7307 -139.383 523.0
-176.06274 -139.383 523.0
-177.00952 -143.11409 537.0
-169.37201 -139.916 525.0
-165.69 -139.916 525.0
-167.87115 -144.97963 544.0
-164.05591 -144.97963 544.0
-160.82976 -145.51263 546.0
-157.00047 -145.51263 546.0
-154.0128 -146.31215 549.0
-138.67465 -135.11888 507.0
-135.3854 -135.38539 508.0
-132.60109 -136.1849 511.0
-130.0272 -137.25093 515.0
-127.3972 -138.31696 519.0
-219.15263 -137.85406 504.0
-216.04575 -138.1276 505.0
-212.9248 -138.40112 506.0
-209.78986 -138.67464 507.0
-207.4544 -139.4952 510.0
-204.27736 -139.76872 511.0
-201.47905 -140.31575 513.0
-198.26694 -140.58926 514.0
-195.41954 -141.13632 516.0
-192.17236 -141.40984 517.0
-188.91115 -141.68335 518.0
-185.9936 -142.23041 520.0
-182.69734 -142.50392 521.0
-180.07436 -143.32446 524.0
-180.1024 -146.3332 535.0
-176.6799 -146.60672 536.0
-173.88858 -147.42728 539.0
-170.73961 -147.97432 541.0
-167.56256 -148.52135 543.0
-164.35747 -149.0684 545.0
-160.82976 -149.34192 546.0
-157.00047 -149.34192 546.0
-154.0128 -150.16248 549.0
-150.436 -150.436 550.0
-135.91841 -139.4952 510.0
-132.86058 -140.04224 512.0
-130.0272 -140.8628 515.0
-127.64267 -142.23041 520.0
-219.15263 -141.3888 504.0
-215.61792 -141.3888 504.0
-212.50401 -141.66933 505.0
-209.78986 -142.2304 507.0
-207.04765 -142.79146 509.0
-204.27736 -143.35252 511.0
-200.69354 -143.35252 511.0
-198.26694 -144.19412 514.0
-195.0408 -144.47466 515.0
-192.17236 -145.03574 517.0
-188.91115 -145.31625 518.0
-186.35127 -146.15785 521.0
-184.1 -147.27998 525.0
-183.16724 -149.52426 533.0
-180.1024 -150.08533 535.0
-177.00952 -150.6464 537.0
-174.21121 -151.48799 540.0
-170.73961 -151.76852 541.0
-167.56256 -152.32959 543.0
-164.05591 -152.61012 544.0
-160.5352 -152.89066 545.0
-157.00047 -153.17119 546.0
-153.1712 -153.17119 546.0
-149.61545 -153.45174 547.0
-135.6519 -142.79146 509.0
-132.60109 -143.35252 511.0
-129.77472 -144.19412 514.0
-127.3972 -145.59679 519.0
-124.23419 -146.15785 521.0
-121.04314 -146.71893 523.0
-118.7217 -148.40213 529.0
-221.8037 -144.3484 502.0
-218.28299 -144.3484 502.0
-215.61792 -144.92351 504.0
-212.50401 -145.21106 505.0
-209.37607 -145.4986 506.0
-206.64087 -146.0737 508.0
-203.87761 -146.64879 510.0
-200.69354 -146.93634 511.0
-197.88121 -147.51143 513.0
-194.6621 -147.79898 514.0
-192.17236 -148.6616 517.0
-188.91115 -148.94916 518.0
-187.78201 -150.96199 525.0
-185.85333 -152.39972 530.0
-183.5109 -153.54991 534.0
-180.43906 -154.125 536.0
-177.33914 -154.70009 538.0
-174.21121 -155.27519 540.0
-170.42401 -155.27519 540.0
-166.9454 -155.56273 541.0
-163.45276 -155.85028 542.0
-159.94608 -156.13782 543.0
-156.42538 -156.42537 544.0
-152.89067 -156.71292 545.0
-149.61545 -157.28801 547.0
-135.1189 -145.78615 507.0
-131.8226 -146.0737 508.0
-129.01729 -146.93634 511.0
-126.16987 -147.79898 514.0
-123.51884 -148.94916 518.0
-120.580246 -149.8118 521.0
-118.27285 -151.53708 527.0
-221.36185 -147.57457 501.0
-217.41335 -147.28001 500.0
-214.7623 -147.86913 502.0
-212.0832 -148.45825 504.0
-208.5485 -148.45825 504.0
-206.2341 -149.34193 507.0
-203.07808 -149.63649 508.0
-200.69354 -150.52017 511.0
-197.49547 -150.81473 512.0
-194.6621 -151.40385 514.0
-192.17236 -152.28754 517.0
-189.64053 -153.17122 520.0
-188.49736 -155.23312 527.0
-185.85333 -156.1168 530.0
-183.5109 -157.29504 534.0
-180.43906 -157.88417 536.0
-177.66876 -158.76785 539.0
-174.21121 -159.06241 540.0
-170.42401 -159.06241 540.0
-166.63681 -159.06241 540.0
-162.84961 -159.06241 540.0
-159.35696 -159.35696 541.0
-156.13785 -159.94609 543.0
-152.3296 -159.94609 543.0
-137.03352 -147.57457 501.0
-133.78636 -147.86913 502.0
-130.78464 -148.45825 504.0
-128.51231 -149.93105 509.0
-125.67894 -150.81473 512.0
-123.28038 -152.28754 517.0
-120.11737 -152.87665 519.0
-223.97783 -150.48509 499.0
-220.03633 -150.18353 498.0
-216.9785 -150.48509 499.0
-214.33447 -151.08824 501.0
-211.24161 -151.38983 502.0
-208.5485 -151.99297 504.0
-205.82732 -152.59612 506.0
-202.67831 -152.89769 507.0
-200.30081 -153.80241 510.0
-197.49547 -154.40555 512.0
-194.6621 -155.0087 514.0
-192.17236 -155.91342 517.0
-190.00523 -157.11972 521.0
-189.21272 -159.53229 529.0
-186.20401 -160.13545 531.0
-183.5109 -161.04016 534.0
-180.43906 -161.64333 536.0
-177.33914 -162.24646 538.0
-174.21121 -162.84961 540.0
-170.42401 -162.84961 540.0
-166.63681 -162.84961 540.0
-162.84961 -162.84961 540.0
-159.06241 -162.84961 540.0
-155.8503 -163.45276 542.0
-152.3296 -163.75433 543.0
-136.76001 -150.78667 500.0
-133.51985 -151.08824 501.0
-130.78464 -151.99297 504.0
-128.7648 -153.80241 510.0
-125.92441 -154.70712 513.0
-123.28038 -155.91342 517.0
-227.0216 -153.67616 498.0
-223.52896 -153.67616 498.0
-219.5945 -153.36758 497.0
-216.9785 -153.98476 499.0
-214.33447 -154.60191 501.0
-211.24161 -154.9105 502.0
-208.1347 -155.2191 503.0
-205.42055 -155.83627 505.0
-202.67831 -156.45345 507.0
-199.90805 -157.07062 509.0
-197.88121 -158.30496 513.0
-194.6621 -158.61356 514.0
-191.80064 -159.23071 516.0
-191.464 -162.008 525.0
-189.21272 -163.24236 529.0
-186.90533 -164.4767 533.0
-183.5109 -164.78528 534.0
-180.7757 -165.71104 537.0
-177.33914 -166.01964 538.0
-174.21121 -166.6368 540.0
-170.42401 -166.6368 540.0
-166.63681 -166.6368 540.0
-162.84961 -166.6368 540.0
-159.06241 -166.6368 540.0
-155.2752 -166.6368 540.0
-151.488 -166.6368 540.0
-137.03352 -154.60191 501.0
-133.78636 -154.9105 502.0
-130.78464 -155.52768 504.0
-129.01729 -157.68779 511.0
-126.16987 -158.61356 514.0
-232.59721 -156.222 495.0
-229.58849 -156.5376 496.0
-226.10988 -156.5376 496.0
-222.63127 -156.5376 496.0
-219.5945 -156.8532 497.0
-216.9785 -157.4844 499.0
-213.47885 -157.4844 499.0
-211.24161 -158.4312 502.0
-207.72092 -158.4312 502.0
-205.01378 -159.0624 504.0
-202.67831 -160.0092 507.0
-199.51532 -160.3248 508.0
-197.10974 -161.2716 511.0
-194.6621 -162.2184 514.0
-191.80064 -162.8496 516.0
-192.19339 -166.3212 527.0
-189.21272 -166.9524 529.0
-186.55467 -167.8992 532.0
-183.5109 -168.5304 534.0
-180.43906 -169.1616 536.0
-177.33914 -169.7928 538.0
-173.88858 -170.1084 539.0
-170.42401 -170.424 540.0
-166.63681 -170.424 540.0
-162.84961 -170.424 540.0
-158.76784 -170.1084 539.0
-154.98766 -170.1084 539.0
-151.488 -170.424 540.0
-147.97433 -170.7396 541.0
-144.71313 -171.3708 543.0
-135.19603 -164.4276 521.0
-131.54208 -164.4276 521.0
-128.37907 -165.0588 523.0
-124.711105 -165.0588 523.0
-229.58849 -160.0162 496.0
-225.654 -159.6936 495.0
-222.63127 -160.0162 496.0
-219.15265 -160.0162 496.0
-216.54367 -160.66144 498.0
-213.47885 -160.98404 499.0
-210.8208 -161.62929 501.0
-207.72092 -161.95189 502.0
-205.01378 -162.59712 504.0
-202.27856 -163.24234 506.0
-199.51532 -163.88756 508.0
-197.10974 -164.85541 511.0
-194.6621 -165.82324 514.0
-194.0309 -168.40416 522.0
-191.82869 -169.69461 526.0
-189.21272 -170.66245 529.0
-186.20401 -171.30768 531.0
-183.5109 -172.27551 534.0
-180.1024 -172.59813 535.0
-177.00952 -173.24335 537.0
-173.56598 -173.56596 538.0
-170.10841 -173.8886 539.0
-165.71104 -173.24335 537.0
-161.64331 -172.92075 536.0
-158.17873 -173.24335 537.0
-154.41257 -173.24335 537.0
-151.20747 -173.8886 539.0
-147.42729 -173.8886 539.0
-137.51746 -166.46848 516.0
-134.15805 -166.79109 517.0
-131.28961 -167.75893 520.0
-127.88814 -168.08154 521.0
-124.711105 -168.72676 523.0
-121.27457 -169.0494 524.0
-228.66272 -162.83557 494.0
-225.19814 -162.83557 494.0
-221.73357 -162.83557 494.0
-219.15265 -163.49483 496.0
-216.10886 -163.82445 497.0
-213.47885 -164.4837 499.0
-210.8208 -165.14296 501.0
-207.72092 -165.47258 502.0
-205.01378 -166.13184 504.0
-201.87881 -166.46146 505.0
-199.12256 -167.12071 507.0
-197.10974 -168.43922 511.0
-195.0408 -169.75774 515.0
-194.7743 -172.72437 524.0
-192.19339 -173.71324 527.0
-189.21272 -174.37251 529.0
-185.85333 -174.70213 530.0
-183.16724 -175.69101 533.0
-179.76578 -176.02063 534.0
-176.02063 -176.02063 534.0
-172.92075 -176.67989 536.0
-169.4772 -177.00952 537.0
-164.7853 -176.02063 534.0
-161.04018 -176.02063 534.0
-157.29503 -176.02063 534.0
-153.83748 -176.35027 535.0
-150.64641 -177.00952 537.0
-139.76872 -168.43922 511.0
-136.71794 -169.09846 513.0
-133.37958 -169.4281 514.0
-130.53217 -170.41698 517.0
-127.64267 -171.40585 520.0
-124.23419 -171.73549 521.0
-121.27457 -172.72437 524.0
-231.18752 -165.62688 492.0
-228.19984 -165.9635 493.0
-224.74228 -165.9635 493.0
-221.73357 -166.30016 494.0
-218.71082 -166.63678 495.0
-216.10886 -167.31007 497.0
-213.05106 -167.6467 498.0
-210.40001 -168.31999 500.0
-207.72092 -168.99327 502.0
-205.01378 -169.66655 504.0
-202.27856 -170.33983 506.0
-199.51532 -171.0131 508.0
-197.10974 -172.02304 511.0
-196.5557 -174.71616 519.0
-194.4026 -176.0627 523.0
-191.82869 -177.07263 526.0
-188.85506 -177.74591 528.0
-185.85333 -178.41919 530.0
-182.82358 -179.09247 532.0
-179.42914 -179.42911 533.0
-176.02063 -179.76575 534.0
-172.27551 -179.76575 534.0
-168.53041 -179.76575 534.0
-164.7853 -179.76575 534.0
-160.7386 -179.42911 533.0
-157.00047 -179.42911 533.0
-153.54991 -179.76575 534.0
-143.072 -171.68639 510.0
-139.2217 -171.34975 509.0
-136.18492 -172.02304 511.0
-133.12007 -172.6963 513.0
-130.27968 -173.70624 516.0
-127.3972 -174.71616 519.0
-124.23419 -175.38943 521.0
-230.71764 -168.7338 491.0
-227.27408 -168.7338 491.0
-223.83054 -168.7338 491.0
-221.2847 -169.42111 493.0
-218.26898 -169.76476 494.0
-216.10886 -170.79572 497.0
-213.47885 -171.48303 499.0
-210.40001 -171.82669 500.0
-207.72092 -172.51399 502.0
-205.01378 -173.2013 504.0
-202.27856 -173.8886 506.0
-199.51532 -174.57591 508.0
-197.10974 -175.60686 511.0
-196.9344 -178.69974 520.0
-193.65918 -179.0434 521.0
-191.464 -180.41801 525.0
-188.49736 -181.10532 527.0
-185.50267 -181.79262 529.0
-182.13628 -182.13629 530.0
-178.75584 -182.47993 531.0
-175.36139 -182.8236 532.0
-171.95291 -183.16724 533.0
-167.8992 -182.8236 532.0
-163.85954 -182.47993 531.0
-160.13545 -182.47993 531.0
-157.00047 -183.16724 533.0
-153.54991 -183.5109 534.0
-149.80481 -183.5109 534.0
-139.2217 -174.91956 509.0
-136.18492 -175.60686 511.0
-133.12007 -176.29417 513.0
-130.27968 -177.32513 516.0
-127.15174 -178.01244 518.0
-233.68428 -171.82668 490.0
-229.77783 -171.47601 489.0
-227.27408 -172.17734 491.0
-223.83054 -172.17734 491.0
-221.2847 -172.87868 493.0
-218.71082 -173.58002 495.0
-216.10886 -174.28134 497.0
-213.47885 -174.98267 499.0
-210.40001 -175.33334 500.0
-207.72092 -176.03467 502.0
-205.01378 -176.73601 504.0
-202.67831 -177.78801 507.0
-200.30081 -178.84001 510.0
-199.0384 -180.94402 516.0
-196.9344 -182.34666 520.0
-193.65918 -182.69734 521.0
-191.0993 -183.74934 524.0
-187.78201 -184.1 525.0
-184.80135 -184.80135 527.0
-181.44896 -185.15201 528.0
-177.74594 -185.15201 528.0
-174.3725 -185.50267 529.0
-170.98508 -185.85335 530.0
-167.5836 -186.20401 531.0
-163.55093 -185.85335 530.0
-159.83388 -185.85335 530.0
-156.70592 -186.55467 532.0
-153.26237 -186.90533 533.0
-149.80481 -187.25601 534.0
-146.3332 -187.60667 535.0
-142.58109 -187.60667 535.0
-266.156 -180.98608 506.0
-248.90321 -181.34377 507.0
-245.34746 -181.34377 507.0
-243.22241 -182.4168 510.0
-239.64561 -182.4168 510.0
-227.27408 -175.62088 491.0
-223.83054 -175.62088 491.0
-221.2847 -176.33624 493.0
-218.71082 -177.0516 495.0
-216.10886 -177.76697 497.0
-213.47885 -178.48233 499.0
-210.40001 -178.84 500.0
-208.1347 -179.91306 503.0
-205.42055 -180.6284 505.0
-203.07808 -181.70145 508.0
-200.69354 -182.77449 511.0
-199.0384 -184.56288 516.0
-196.17696 -185.27824 518.0
-193.65918 -186.35129 521.0
-190.36992 -186.70897 522.0
-187.06665 -187.06665 523.0
-184.1 -187.782 525.0
-180.418 -187.782 525.0
-177.07265 -188.13968 526.0
-173.71326 -188.49736 527.0
-170.33984 -188.85504 528.0
-166.95241 -189.21274 529.0
-163.24236 -189.21274 529.0
-159.83388 -189.5704 530.0
-157.00047 -190.64345 533.0
-153.26237 -190.64345 533.0
-149.80481 -191.00113 534.0
-146.60674 -191.71648 536.0
-143.64711 -192.78954 539.0
-140.90488 -194.22025 543.0
-270.01334 -182.34666 500.0
-268.63873 -183.80545 504.0
-265.104 -183.80545 504.0
-261.5693 -183.80545 504.0
-257.01062 -183.07607 502.0
-249.39415 -185.2642 508.0
-246.31529 -185.6289 509.0
-241.7917 -184.89952 507.0
-238.23592 -184.89952 507.0
-226.8112 -178.69972 490.0
-223.37468 -178.69972 490.0
-220.38701 -179.06442 491.0
-219.15265 -180.8879 496.0
-216.9785 -181.98198 499.0
-213.47885 -181.98198 499.0
-210.8208 -182.71136 501.0
-208.5485 -183.80545 504.0
-205.42055 -184.17014 505.0
-203.07808 -185.2642 508.0
-201.0863 -186.72299 512.0
-198.65268 -187.81708 515.0
-195.79825 -188.54646 517.0
-192.91579 -189.27585 519.0
-190.00523 -190.00522 521.0
-186.35127 -190.00522 521.0
-183.048 -190.36992 522.0
-179.7307 -190.73462 523.0
-176.39938 -191.0993 524.0
-173.054 -191.464 525.0
-169.69461 -191.82869 526.0
-166.63681 -192.55809 528.0
-163.24236 -192.92278 529.0
-159.53232 -192.92278 529.0
-157.00047 -194.38156 533.0
-153.54991 -194.74625 534.0
-150.36588 -195.47562 536.0
-147.15376 -196.20502 538.0
-144.71313 -198.02849 543.0
-140.90488 -198.02849 543.0
-271.8789 -184.7382 497.0
-269.4733 -185.48163 499.0
-265.44064 -185.10992 498.0
-249.39415 -188.827 508.0
-244.37961 -187.71187 505.0
-241.31479 -188.08357 506.0
-237.76604 -188.08357 506.0
-234.68016 -188.45528 507.0
-222.91881 -181.76456 489.0
-220.38701 -182.50798 491.0
-219.5945 -184.7382 497.0
-216.54367 -185.10992 498.0
-213.90668 -185.85333 500.0
-211.24161 -186.59674 502.0
-208.5485 -187.34015 504.0
-205.82732 -188.08357 506.0
-203.47783 -189.1987 509.0
-201.0863 -190.31381 512.0
-198.26694 -191.05722 514.0
-195.79825 -192.17235 517.0
-192.17236 -192.17235 517.0
-188.54645 -192.17235 517.0
-185.63593 -192.91576 519.0
-182.34668 -193.28748 520.0
-179.0434 -193.65918 521.0
-175.72609 -194.03088 522.0
-172.39474 -194.40259 523.0
-169.37201 -195.146 525.0
-166.32121 -195.8894 527.0
-162.62518 -195.8894 527.0
-159.83388 -197.00453 530.0
-157.00047 -198.11964 533.0
-154.12502 -199.23477 536.0
-151.20747 -200.3499 539.0
-270.2378 -187.08768 494.0
-266.77316 -187.08768 494.0
-264.3746 -187.84512 496.0
-260.896 -187.84512 496.0
-257.9364 -188.22383 497.0
-257.01062 -190.11743 502.0
-253.48993 -190.11743 502.0
-249.96924 -190.11743 502.0
-246.44855 -190.11743 502.0
-243.41176 -190.49615 503.0
-240.36098 -190.87486 504.0
-236.82623 -190.87486 504.0
-232.36577 -190.11743 502.0
-227.47748 -188.98128 499.0
-223.52896 -188.60255 498.0
-220.03633 -188.60255 498.0
-216.9785 -188.98128 499.0
-213.90668 -189.36 500.0
-211.24161 -190.11743 502.0
-208.5485 -190.87486 504.0
-206.2341 -192.01103 507.0
-203.07808 -192.38976 508.0
-200.69354 -193.52592 511.0
-197.49547 -193.90463 512.0
-194.6621 -194.66206 514.0
-191.80064 -195.41953 516.0
-188.18176 -195.41953 516.0
-184.92056 -195.79823 517.0
-181.64534 -196.17696 518.0
-178.3561 -196.55566 519.0
-175.38945 -197.31311 521.0
-172.06512 -197.69183 522.0
-169.0494 -198.44926 524.0
-166.0056 -199.20671 526.0
-162.62518 -199.58543 527.0
-159.83388 -200.7216 530.0
-157.00047 -201.85776 533.0
-154.12502 -202.99391 536.0
-266.95554 -188.23785 488.0
-264.07303 -188.62358 489.0
-261.70953 -189.39507 491.0
-260.896 -191.32373 496.0
-258.97437 -192.48093 499.0
-255.98668 -192.86665 500.0
-252.48001 -192.86665 500.0
-249.47128 -193.25238 501.0
-246.44855 -193.63812 502.0
-242.92786 -193.63812 502.0
-238.93025 -193.25238 501.0
-235.41656 -193.25238 501.0
-231.90288 -193.25238 501.0
-226.10988 -191.32373 496.0
-222.63127 -191.32373 496.0
-220.03633 -192.09518 498.0
-216.9785 -192.48093 499.0
-214.33447 -193.25238 501.0
-211.24161 -193.63812 502.0
-208.5485 -194.40959 504.0
-205.82732 -195.18106 506.0
-202.67831 -195.56679 507.0
-200.30081 -196.72398 510.0
-197.10974 -197.10973 511.0
-193.90465 -197.49545 512.0
-191.05725 -198.26692 514.0
-187.45236 -198.26692 514.0
-184.56288 -199.03839 516.0
-181.29468 -199.42413 517.0
-177.66878 -199.42413 517.0
-175.05281 -200.58133 520.0
-171.73549 -200.96706 521.0
-169.0494 -202.12425 524.0
-165.69 -202.51 525.0
-162.62518 -203.28146 527.0
-160.43703 -205.21013 532.0
-157.00047 -205.59586 533.0
-264.7674 -190.08937 484.0
-261.91293 -190.48212 485.0
-260.64352 -192.0531 489.0
-260.37 -194.40959 495.0
-257.9364 -195.19508 497.0
-255.47472 -195.98058 499.0
-251.97504 -195.98058 499.0
-248.47539 -195.98058 499.0
-245.95761 -196.76607 501.0
-242.44394 -196.76607 501.0
-237.97646 -195.98058 499.0
-234.47676 -195.98058 499.0
-230.51425 -195.58783 498.0
-226.10988 -194.80234 496.0
-222.63127 -194.80234 496.0
-220.03633 -195.58783 498.0
-216.9785 -195.98058 499.0
-214.33447 -196.76607 501.0
-211.24161 -197.15881 502.0
-208.5485 -197.9443 504.0
-205.42055 -198.33705 505.0
-202.67831 -199.12256 507.0
-199.90805 -199.90805 509.0
-197.10974 -200.69354 511.0
-193.52594 -200.69354 511.0
-190.31383 -201.08629 512.0
-187.45236 -201.87178 514.0
-183.84752 -201.87178 514.0
-181.29468 -203.05 517.0
-177.66878 -203.05 517.0
-175.05281 -204.22826 520.0
-171.73549 -204.621 521.0
-169.0494 -205.79924 524.0
-166.32121 -206.97748 527.0
-163.24236 -207.76297 529.0
-263.6733 -192.68433 482.0
-260.8329 -193.08409 483.0
-260.11053 -195.0829 488.0
-257.74002 -195.88242 490.0
-255.34145 -196.68193 492.0
-253.4268 -197.88121 495.0
-249.95522 -197.88121 495.0
-247.47949 -198.68073 497.0
-244.4848 -199.08049 498.0
-240.50826 -198.68073 497.0
-237.02263 -198.68073 497.0
-233.53699 -198.68073 497.0
-229.58849 -198.28096 496.0
-226.10988 -198.28096 496.0
-222.63127 -198.28096 496.0
-219.5945 -198.68073 497.0
-216.9785 -199.48026 499.0
-214.33447 -200.27977 501.0
-211.24161 -200.67953 502.0
-208.5485 -201.47905 504.0
-205.42055 -201.87881 505.0
-202.27856 -202.27856 506.0
-199.12256 -202.67833 507.0
-196.33827 -203.47784 509.0
-193.52594 -204.27736 511.0
-189.94212 -204.27736 511.0
-187.08768 -205.07689 513.0
-183.84752 -205.47665 514.0
-180.944 -206.27617 516.0
-178.01244 -207.0757 518.0
-175.05281 -207.87521 520.0
-172.06512 -208.67473 522.0
-169.37201 -209.87401 525.0
-166.95241 -211.47305 529.0
-262.57922 -195.2512 480.0
-260.29285 -196.06476 482.0
-259.57748 -198.09862 487.0
-257.21402 -198.91217 489.0
-253.7845 -198.91217 489.0
-252.40288 -200.53926 493.0
-249.45024 -200.94603 494.0
-246.48361 -201.35281 495.0
-243.50294 -201.75958 496.0
-240.02434 -201.75958 496.0
-236.54572 -201.75958 496.0
-233.0671 -201.75958 496.0
-230.05136 -202.16635 497.0
-227.47748 -202.97989 499.0
-223.97783 -202.97989 499.0
-220.03633 -202.57314 498.0
-216.9785 -202.97989 499.0
-214.7623 -204.20023 502.0
-211.24161 -204.20023 502.0
-208.1347 -204.607 503.0
-205.01378 -205.01376 504.0
-201.87881 -205.42055 505.0
-199.12256 -206.23409 507.0
-195.95255 -206.64085 508.0
-193.1472 -207.4544 510.0
-189.94212 -207.86118 511.0
-187.08768 -208.67473 513.0
-183.84752 -209.0815 514.0
-181.29468 -210.30182 517.0
-178.3561 -211.11537 519.0
-175.38945 -211.92892 521.0
-172.39474 -212.74246 523.0
-262.0322 -198.20381 479.0
-260.29285 -199.44518 482.0
-257.97845 -200.27275 484.0
-255.63602 -201.10031 486.0
-252.74652 -201.5141 487.0
-250.35498 -202.34169 489.0
-248.44032 -203.58305 492.0
-245.48772 -203.99684 493.0
-242.52107 -204.41061 494.0
-240.02434 -205.23819 496.0
-236.54572 -205.23819 496.0
-233.53699 -205.65198 497.0
-230.97713 -206.47955 499.0
-227.47748 -206.47955 499.0
-224.42668 -206.89334 500.0
-220.47818 -206.47955 499.0
-216.9785 -206.47955 499.0
-214.7623 -207.7209 502.0
-211.24161 -207.7209 502.0
-208.1347 -208.13469 503.0
-205.01378 -208.54848 504.0
-201.87881 -208.96227 505.0
-199.12256 -209.78984 507.0
-195.95255 -210.20364 508.0
-193.1472 -211.0312 510.0
-189.94212 -211.44499 511.0
-187.45236 -212.68636 514.0
-184.2052 -213.10014 515.0
-181.29468 -213.9277 517.0
-178.3561 -214.75528 519.0

