ply
format ascii 1.0
comment made by @arthurmuchir
element vertex 1020
property float x
property float y
property float z
end_header
-102.92067 -94.68701 587.0
-110.39687 -98.130554 583.0
-106.672806 -98.46719 585.0
-102.92067 -98.80383 587.0
-98.97217 -98.97215 588.0
-95.170944 -99.30879 590.0
-113.896545 -101.69332 580.0
-110.01815 -101.86866 581.0
-106.12576 -102.04398 582.0
-102.39467 -102.39466 584.0
-98.63553 -102.74532 586.0
-95.170944 -103.446655 590.0
-117.760895 -105.578705 579.0
-113.896545 -105.761055 580.0
-109.8288 -105.761055 580.0
-105.94341 -105.9434 581.0
-102.21934 -106.30809 583.0
-98.4672 -106.67279 585.0
-121.19041 -109.071365 576.0
-117.35411 -109.26073 577.0
-113.30743 -109.26073 577.0
-109.63944 -109.63945 579.0
-105.57872 -109.63945 579.0
-101.86867 -110.01818 581.0
-97.96225 -110.20753 582.0
-125.01267 -112.91467 575.0
-120.559204 -112.52193 573.0
-116.74396 -112.71831 574.0
-113.111046 -113.111046 576.0
-109.45007 -113.50379 578.0
-105.57872 -113.700165 579.0
-101.86867 -114.09292 581.0
-128.59648 -116.540565 573.0
-124.57784 -116.540565 573.0
-120.3488 -116.33717 572.0
-116.54057 -116.540565 573.0
-112.7183 -116.74395 574.0
-109.26072 -117.3541 577.0
-105.76107 -117.96427 580.0
-77.51137 -124.87941 614.0
-73.08594 -124.67603 613.0
-127.923195 -119.928 570.0
-123.925606 -119.928 570.0
-120.138405 -120.1384 571.0
-116.54057 -120.5592 573.0
-112.7183 -120.7696 574.0
-109.26072 -121.4008 577.0
-85.14187 -127.7128 607.0
-81.15129 -128.1336 609.0
-77.13265 -128.5544 611.0
-73.08594 -128.9752 613.0
-131.45793 -123.49076 568.0
-127.47434 -123.49076 568.0
-123.70818 -123.70819 569.0
-119.717606 -123.70819 569.0
-116.54057 -124.577835 573.0
-112.91468 -125.01266 575.0
-109.26072 -125.447495 577.0
-89.25168 -131.75247 606.0
-85.0016 -131.75247 606.0
-80.88478 -131.9699 607.0
-76.880165 -132.40472 609.0
-72.84748 -132.83954 611.0
-138.68867 -126.801056 565.0
-135.20305 -127.249916 567.0
-131.22649 -127.249916 567.0
-127.249916 -127.249916 567.0
-123.490776 -127.47434 568.0
-119.717606 -127.69876 569.0
-116.54057 -128.59647 573.0
-112.7183 -128.82089 574.0
-92.42171 -134.43156 599.0
-88.51528 -134.88042 601.0
-84.44054 -135.10484 602.0
-80.48502 -135.5537 604.0
-76.62769 -136.22697 607.0
-72.728264 -136.90025 610.0
-138.93414 -130.99504 566.0
-134.72614 -130.76358 565.0
-130.76361 -130.76358 565.0
-126.80106 -130.76358 565.0
-123.490776 -131.4579 568.0
-120.138405 -132.15224 571.0
-116.54057 -132.61511 573.0
-100.82369 -138.63255 599.0
-96.13879 -137.93822 596.0
-92.11311 -138.16966 597.0
-88.22072 -138.63255 599.0
-84.30027 -139.09543 601.0
-80.35177 -139.5583 603.0
-76.62769 -140.48407 607.0
-142.6512 -134.72614 565.0
-138.68867 -134.72614 565.0
-134.24924 -134.24924 563.0
-130.76361 -134.72614 565.0
-126.80106 -134.72614 565.0
-123.27336 -135.20305 567.0
-120.138405 -136.15688 571.0
-107.94923 -141.16438 592.0
-103.79734 -141.16438 592.0
-99.81377 -141.40283 593.0
-95.81617 -141.6413 594.0
-91.95882 -142.1182 596.0
-88.07344 -142.59511 598.0
-84.30027 -143.31047 601.0
-80.35177 -143.78738 603.0
-146.61374 -138.68867 565.0
-142.6512 -138.68867 565.0
-137.95227 -137.95227 562.0
-134.24924 -138.19774 563.0
-130.76361 -138.68867 565.0
-126.80106 -138.68867 565.0
-123.27336 -139.17961 567.0
-120.3488 -140.40694 572.0
-115.6639 -144.57986 589.0
-111.533035 -144.57986 589.0
-107.40218 -144.57986 589.0
-103.622 -145.07082 591.0
-99.47713 -145.07082 591.0
-95.49356 -145.31627 592.0
-91.80453 -146.05267 595.0
-87.92616 -146.54361 597.0
-84.16 -147.28001 600.0
-150.57628 -142.6512 565.0
-145.83525 -141.89377 562.0
-141.89377 -141.89377 562.0
-137.95227 -141.89377 562.0
-134.48769 -142.39873 564.0
-130.76361 -142.6512 565.0
-126.80106 -142.6512 565.0
-123.490776 -143.40865 568.0
-114.68204 -147.44833 584.0
-110.7756 -147.7008 585.0
-107.03749 -148.20576 587.0
-103.27134 -148.71072 589.0
-99.14049 -148.71072 589.0
-95.49356 -149.46817 592.0
-91.65024 -149.97313 594.0
-87.92616 -150.73056 597.0
-153.71825 -145.83527 562.0
-149.51025 -145.57576 561.0
-145.57576 -145.57576 561.0
-141.64128 -145.57576 561.0
-137.95227 -145.83527 562.0
-134.48769 -146.35425 564.0
-130.76361 -146.61372 565.0
-127.0255 -146.87323 566.0
-123.490776 -147.39221 568.0
-118.57443 -151.2846 583.0
-114.68204 -151.54411 584.0
-110.39687 -151.2846 583.0
-106.672806 -151.8036 585.0
-102.92067 -152.32259 587.0
-99.14049 -152.84158 589.0
-95.33225 -153.36057 591.0
-156.81815 -148.97722 559.0
-152.89769 -148.97722 559.0
-148.71074 -148.71072 558.0
-144.79727 -148.71072 558.0
-141.64128 -149.51024 561.0
-137.95227 -149.77673 562.0
-134.72614 -150.57628 565.0
-130.76361 -150.57628 565.0
-126.80106 -150.57628 565.0
-126.53456 -155.10689 582.0
-122.452805 -155.10689 582.0
-118.37105 -155.10689 582.0
-114.092926 -154.84038 581.0
-110.01815 -154.84038 581.0
-106.49045 -155.6399 584.0
-102.92067 -156.4394 587.0
-99.14049 -156.97243 589.0
-159.58841 -151.8036 555.0
-155.97653 -152.07712 556.0
-152.35065 -152.35063 557.0
-148.44423 -152.35063 557.0
-144.79727 -152.62415 558.0
-141.38881 -153.1712 560.0
-137.95227 -153.71823 562.0
-134.72614 -154.5388 565.0
-130.76361 -154.5388 565.0
-130.16747 -158.6416 580.0
-126.09974 -158.6416 580.0
-122.032005 -158.6416 580.0
-117.96427 -158.6416 580.0
-113.896545 -158.6416 580.0
-110.01815 -158.91512 581.0
-106.308105 -159.46216 583.0
-102.74534 -160.28271 586.0
-99.14049 -161.10327 589.0
-167.07164 -155.41545 554.0
-163.18623 -155.41545 554.0
-159.30086 -155.41545 554.0
-155.41547 -155.41545 554.0
-151.8036 -155.69598 555.0
-148.17772 -155.97653 556.0
-144.79727 -156.53758 558.0
-141.13632 -156.81813 559.0
-137.7068 -157.37918 561.0
-134.72614 -158.50133 565.0
-130.99504 -158.78186 566.0
-129.04533 -161.30666 575.0
-125.447495 -161.86774 577.0
-121.19041 -161.58719 576.0
-117.35411 -161.86774 577.0
-113.5038 -162.14825 578.0
-110.01815 -162.98985 581.0
-106.308105 -163.55093 583.0
-102.57001 -164.11198 585.0
-180.96503 -157.8631 549.0
-177.43735 -158.15067 550.0
-173.8956 -158.4382 551.0
-170.03127 -158.4382 551.0
-166.16692 -158.4382 551.0
-162.59712 -158.72575 552.0
-159.30086 -159.30084 554.0
-155.41547 -159.30084 554.0
-151.53009 -159.30084 554.0
-147.64471 -159.30084 554.0
-144.53778 -160.16348 557.0
-140.88383 -160.45102 558.0
-137.46133 -161.02612 560.0
-134.48769 -162.1763 564.0
-130.99504 -162.7514 566.0
-128.37206 -164.47668 572.0
-124.79525 -165.05177 574.0
-120.98 -165.33931 575.0
-117.35411 -165.91441 577.0
-113.70017 -166.4895 579.0
-109.8288 -166.77705 580.0
-106.49045 -167.92723 584.0
-71.05909 -171.37779 596.0
-66.991356 -171.66536 597.0
-63.120003 -172.52798 600.0
-59.010197 -172.81552 601.0
-179.97617 -160.82976 546.0
-177.11472 -161.71346 549.0
-173.58 -162.00801 550.0
-169.4141 -161.71346 549.0
-165.56378 -161.71346 549.0
-161.71342 -161.71346 549.0
-158.4382 -162.30257 551.0
-155.41547 -163.18625 554.0
-151.53009 -163.18625 554.0
-147.64471 -163.18625 554.0
-144.53778 -164.06993 557.0
-140.88383 -164.3645 558.0
-137.21587 -164.65904 559.0
-134.48769 -166.13185 564.0
-130.99504 -166.72096 566.0
-128.14763 -168.19377 571.0
-124.36043 -168.48833 572.0
-120.76961 -169.07745 574.0
-117.35411 -169.96114 577.0
-113.70017 -170.55025 579.0
-79.01923 -174.6741 593.0
-74.86034 -174.6741 593.0
-70.82063 -174.96864 594.0
-66.87914 -175.55779 596.0
-62.8044 -175.85233 597.0
-58.81382 -176.44145 599.0
-189.00934 -165.86534 550.0
-182.79553 -163.75433 543.0
-178.98727 -163.75433 543.0
-176.4695 -164.96062 547.0
-168.53041 -161.04016 534.0
-168.48834 -164.65904 546.0
-164.96063 -164.96062 547.0
-161.12431 -164.96062 547.0
-158.15067 -165.86534 550.0
-154.8544 -166.46848 552.0
-151.53009 -167.07164 554.0
-147.64471 -167.07164 554.0
-144.27829 -167.67477 556.0
-140.63136 -167.97635 557.0
-137.21587 -168.57951 559.0
-134.48769 -170.08737 564.0
-130.76361 -170.38895 565.0
-127.69878 -171.59523 569.0
-124.36043 -172.49995 572.0
-120.76961 -173.1031 574.0
-117.15073 -173.70625 576.0
-86.45336 -177.02356 587.0
-82.47681 -177.32513 588.0
-78.48622 -177.62671 589.0
-74.60786 -178.22984 591.0
-70.582184 -178.53142 592.0
-66.5425 -178.833 593.0
-62.699203 -179.73772 596.0
-58.715633 -180.34087 598.0
-186.60376 -167.56256 543.0
-181.44897 -166.32822 539.0
-175.69101 -164.4767 533.0
-170.98508 -163.55095 530.0
-167.5836 -163.85951 531.0
-163.85954 -163.85951 531.0
-160.43703 -164.1681 532.0
-160.82976 -168.48831 546.0
-153.26237 -164.4767 533.0
-149.80481 -164.78528 534.0
-146.0597 -164.78528 534.0
-142.31458 -164.78528 534.0
-144.0188 -171.2656 555.0
-140.63136 -171.88278 557.0
-137.21587 -172.49995 559.0
-134.01079 -173.4257 562.0
-130.76361 -174.35147 565.0
-127.249916 -174.96864 567.0
-124.14301 -176.20299 571.0
-120.559204 -176.82016 573.0
-116.947334 -177.43735 575.0
-101.69334 -178.98027 580.0
-97.6256 -178.98027 580.0
-93.88049 -179.59744 582.0
-89.953 -179.90604 583.0
-86.01151 -180.21461 584.0
-82.196266 -180.83179 586.0
-78.35297 -181.44896 588.0
-74.35537 -181.75755 589.0
-70.582184 -182.6833 592.0
-66.5425 -182.9919 593.0
-188.30801 -169.4772 537.0
-183.85454 -168.846 535.0
-178.08258 -166.9524 529.0
-174.3725 -166.9524 529.0
-170.33984 -166.6368 528.0
-166.95241 -166.9524 529.0
-163.24236 -166.9524 529.0
-159.53232 -166.9524 529.0
-156.1168 -167.268 530.0
-152.39973 -167.268 530.0
-149.24374 -167.8992 532.0
-146.0597 -168.5304 534.0
-142.31458 -168.5304 534.0
-138.56944 -168.5304 534.0
-135.58176 -169.4772 537.0
-137.7068 -177.0516 561.0
-134.01079 -177.3672 562.0
-130.76361 -178.314 565.0
-127.0255 -178.6296 566.0
-123.70818 -179.5764 569.0
-120.138405 -180.2076 571.0
-109.07136 -181.7856 576.0
-105.21403 -182.1012 577.0
-101.167336 -182.1012 577.0
-97.28897 -182.4168 578.0
-93.55788 -183.048 580.0
-89.64442 -183.3636 581.0
-85.864235 -183.9948 583.0
-81.91573 -184.3104 584.0
-78.08646 -184.9416 586.0
-74.22913 -185.5728 588.0
-70.46295 -186.5196 591.0
-66.43029 -186.8352 592.0
-195.47563 -172.92075 536.0
-191.35881 -172.59813 535.0
-186.90533 -171.95291 533.0
-181.10532 -170.01723 527.0
-177.07265 -169.69461 526.0
-173.38364 -169.69461 526.0
-169.37201 -169.372 525.0
-166.0056 -169.69461 526.0
-162.3166 -169.69461 526.0
-158.92915 -170.01723 527.0
-155.52768 -170.33983 528.0
-152.11218 -170.66245 529.0
-148.40215 -170.66245 529.0
-144.6921 -170.66245 529.0
-141.24855 -170.98506 530.0
-137.79095 -171.30768 531.0
-134.82433 -172.27551 534.0
-131.57014 -172.92075 536.0
-133.77232 -180.98608 561.0
-130.76361 -182.27654 565.0
-126.80106 -182.27654 565.0
-123.490776 -183.24437 568.0
-119.928 -183.8896 570.0
-116.54057 -184.85744 573.0
-112.521935 -184.85744 573.0
-108.50327 -184.85744 573.0
-104.666985 -185.18005 574.0
-100.81667 -185.50266 575.0
-97.12064 -186.14789 577.0
-93.39657 -186.79312 579.0
-89.49013 -187.11572 580.0
-85.71696 -187.76096 582.0
-81.91573 -188.40619 584.0
-77.9532 -188.7288 585.0
-204.5088 -177.99838 540.0
-199.23479 -176.67989 536.0
-194.74623 -176.02063 534.0
-189.5704 -174.70213 530.0
-184.45067 -173.38362 526.0
-180.418 -173.05399 525.0
-176.73601 -173.05399 525.0
-172.72437 -172.72437 524.0
-169.0494 -172.72437 524.0
-165.69 -173.05399 525.0
-162.00801 -173.05399 525.0
-158.62758 -173.38362 526.0
-154.93857 -173.38362 526.0
-151.5371 -173.71324 527.0
-148.12161 -174.04288 528.0
-144.41856 -174.04288 528.0
-140.98204 -174.37251 529.0
-137.27197 -174.37251 529.0
-134.06688 -175.03175 531.0
-131.07921 -176.02063 534.0
-128.2879 -177.33914 538.0
-130.76361 -186.23906 565.0
-126.80106 -186.23906 565.0
-123.05595 -186.56868 566.0
-119.717606 -187.55757 569.0
-116.13379 -188.21683 571.0
-112.12918 -188.21683 571.0
-108.31392 -188.54645 572.0
-104.48464 -188.87607 573.0
-100.466 -188.87607 573.0
-96.784004 -189.53532 575.0
-93.07396 -190.19458 577.0
-89.49013 -191.18346 580.0
-85.71696 -191.84271 582.0
-208.296 -181.78558 540.0
-202.6152 -180.10239 535.0
-197.74796 -179.09247 532.0
-192.55807 -177.74591 528.0
-187.78201 -176.736 525.0
-183.74934 -176.39935 524.0
-179.7307 -176.0627 523.0
-176.06274 -176.0627 523.0
-172.39474 -176.0627 523.0
-169.0494 -176.39935 524.0
-165.3744 -176.39935 524.0
-162.00801 -176.736 525.0
-158.62758 -177.07263 526.0
-155.23312 -177.40927 527.0
-151.5371 -177.40927 527.0
-148.12161 -177.74591 528.0
-144.6921 -178.08255 529.0
-140.98204 -178.08255 529.0
-137.27197 -178.08255 529.0
-133.8144 -178.41919 530.0
-130.83374 -179.42911 533.0
-128.04945 -180.77567 537.0
-124.283295 -180.77567 537.0
-120.96597 -181.44896 539.0
-123.05595 -190.53824 566.0
-119.5072 -191.2115 568.0
-115.523636 -191.2115 568.0
-111.736435 -191.54816 569.0
-108.12456 -192.22144 571.0
-104.30229 -192.55807 572.0
-100.466 -192.8947 573.0
-96.61569 -193.23135 574.0
-93.07396 -194.24127 577.0
-89.49013 -195.25119 580.0
-215.07088 -184.88551 538.0
-211.29771 -184.88551 538.0
-207.91028 -185.22916 539.0
-200.3429 -181.79262 529.0
-195.88943 -181.10532 527.0
-191.464 -180.41801 525.0
-187.06665 -179.73071 523.0
-183.048 -179.38705 522.0
-179.0434 -179.0434 521.0
-175.38945 -179.0434 521.0
-172.06512 -179.38705 522.0
-168.72678 -179.73071 523.0
-165.3744 -180.07436 524.0
-162.00801 -180.41801 525.0
-158.92915 -181.10532 527.0
-155.23312 -181.10532 527.0
-152.11218 -181.79262 529.0
-148.40215 -181.79262 529.0
-144.9656 -182.13629 530.0
-140.98204 -181.79262 529.0
-137.53146 -182.13629 530.0
-133.8144 -182.13629 530.0
-130.58827 -182.8236 532.0
-127.095634 -183.16724 533.0
-123.82041 -183.85454 535.0
-120.74154 -184.88551 538.0
-117.403206 -185.57281 540.0
-119.5072 -195.19511 568.0
-115.523636 -195.19511 568.0
-111.736435 -195.53877 569.0
-107.935196 -195.88242 570.0
-104.30229 -196.56972 572.0
-100.466 -196.91338 573.0
-263.1403 -187.95734 536.0
-258.4133 -187.25601 534.0
-253.23746 -186.20401 531.0
-249.04347 -185.85335 530.0
-247.17792 -187.25601 534.0
-244.77939 -194.26935 554.0
-239.15468 -192.86667 550.0
-224.27238 -190.06134 542.0
-218.84407 -188.65868 538.0
-214.27136 -187.95734 536.0
-209.72672 -187.25601 534.0
-204.43867 -185.85335 530.0
-199.20674 -184.45067 526.0
-194.7743 -183.74934 524.0
-190.36992 -183.04802 522.0
-186.35127 -182.69734 521.0
-182.69734 -182.69734 521.0
-179.0434 -182.69734 521.0
-175.38945 -182.69734 521.0
-171.73549 -182.69734 521.0
-168.72678 -183.39867 523.0
-165.3744 -183.74934 524.0
-162.3166 -184.45067 526.0
-159.23074 -185.15201 528.0
-156.1168 -185.85335 530.0
-152.97482 -186.55467 532.0
-155.13493 -193.91867 553.0
-150.98305 -193.56801 552.0
-141.51505 -186.20401 531.0
-137.53146 -185.85335 530.0
-134.06688 -186.20401 531.0
-130.3428 -186.20401 531.0
-127.095634 -186.90533 533.0
-123.58897 -187.25601 534.0
-120.292694 -187.95734 536.0
-116.75096 -188.30801 537.0
-113.4056 -189.00934 539.0
-115.523636 -199.17867 568.0
-111.54007 -199.17867 568.0
-107.935196 -199.88002 570.0
-278.17688 -191.71648 536.0
-274.41772 -191.71648 536.0
-269.64865 -191.00113 534.0
-266.4015 -191.3588 535.0
-262.64935 -191.3588 535.0
-255.02585 -188.49736 527.0
-251.32983 -188.49736 527.0
-246.2241 -187.42433 524.0
-244.86353 -189.21274 529.0
-242.97694 -190.64345 533.0
-244.17622 -194.57793 544.0
-240.36098 -194.57793 544.0
-236.98055 -194.9356 545.0
-233.15828 -194.9356 545.0
-227.23201 -193.1472 540.0
-223.03102 -192.78954 539.0
-218.03052 -191.71648 536.0
-213.47183 -191.00113 534.0
-208.54848 -189.92809 531.0
-203.6672 -188.85504 528.0
-198.828 -187.782 525.0
-194.4026 -187.06665 523.0
-190.00523 -186.35129 521.0
-186.35127 -186.35129 521.0
-182.34668 -185.9936 520.0
-178.69974 -185.9936 520.0
-175.38945 -186.35129 521.0
-171.73549 -186.35129 521.0
-168.72678 -187.06665 523.0
-165.69 -187.782 525.0
-162.62518 -188.49736 527.0
-159.23074 -188.85504 528.0
-156.70592 -190.28577 532.0
-157.28802 -195.65097 547.0
-153.73227 -196.00865 548.0
-150.436 -196.724 550.0
-146.84518 -197.08168 551.0
-143.7593 -198.15472 554.0
-133.56192 -189.21274 529.0
-130.3428 -189.92809 531.0
-127.33409 -191.00113 534.0
-123.82041 -191.3588 535.0
-120.292694 -191.71648 536.0
-116.75096 -192.07416 537.0
-113.616005 -193.1472 540.0
-285.6741 -192.92278 529.0
-281.96405 -192.92278 529.0
-280.358 -194.38156 533.0
-277.65787 -195.11093 535.0
-268.786 -191.464 525.0
-265.104 -191.464 525.0
-260.42612 -190.73462 523.0
-255.77628 -190.00522 521.0
-253.09016 -190.73462 523.0
-249.89911 -191.0993 524.0
-245.75421 -190.73462 523.0
-242.54912 -191.0993 524.0
-241.15347 -192.92278 529.0
-241.93196 -196.5697 539.0
-238.59361 -196.9344 540.0
-234.37157 -196.5697 539.0
-229.73576 -195.84032 537.0
-225.54881 -195.47562 536.0
-221.37587 -195.11093 535.0
-216.81021 -194.38156 533.0
-211.8728 -193.28748 530.0
-207.76299 -192.92278 529.0
-202.89574 -191.82869 526.0
-198.828 -191.464 525.0
-194.0309 -190.36992 522.0
-190.00523 -190.00522 521.0
-185.9936 -189.64053 520.0
-182.34668 -189.64053 520.0
-179.0434 -190.00522 521.0
-175.38945 -190.00522 521.0
-172.06512 -190.36992 522.0
-169.0494 -191.0993 524.0
-166.0056 -191.82869 526.0
-162.93376 -192.55809 528.0
-159.83388 -193.28748 530.0
-160.82976 -199.12256 546.0
-157.00047 -199.12256 546.0
-153.45174 -199.48726 547.0
-149.88896 -199.85196 548.0
-146.84518 -200.94603 551.0
-143.24033 -201.31071 552.0
-139.36896 -201.31071 552.0
-135.4976 -201.31071 552.0
-131.8647 -201.67542 553.0
-128.21777 -202.0401 554.0
-124.55679 -202.4048 555.0
-121.31664 -203.49889 558.0
-283.9138 -192.91576 519.0
-281.3539 -193.65918 521.0
-278.23297 -194.03088 522.0
-273.52002 -193.28748 520.0
-270.39206 -193.65918 521.0
-266.73813 -193.65918 521.0
-261.56927 -192.54405 518.0
-258.43433 -192.91576 519.0
-255.28534 -193.28748 520.0
-252.12234 -193.65918 521.0
-247.99147 -193.28748 520.0
-244.34454 -193.28748 520.0
-241.62337 -194.03088 522.0
-244.80042 -199.60648 537.0
-241.03426 -199.60648 537.0
-237.2681 -199.60648 537.0
-232.63228 -198.86307 535.0
-228.45232 -198.49135 534.0
-224.70721 -198.49135 534.0
-220.5483 -198.11964 533.0
-215.99666 -197.37624 531.0
-211.47304 -196.63283 529.0
-206.9775 -195.8894 527.0
-202.51001 -195.146 525.0
-198.4493 -194.77429 524.0
-194.0309 -194.03088 522.0
-190.00523 -193.65918 521.0
-186.35127 -193.65918 521.0
-182.69734 -193.65918 521.0
-179.0434 -193.65918 521.0
-175.38945 -193.65918 521.0
-172.39474 -194.40259 523.0
-169.37201 -195.146 525.0
-166.32121 -195.8894 527.0
-163.55093 -197.00453 530.0
-161.34174 -198.86307 535.0
-160.24063 -202.20842 544.0
-157.00047 -202.95183 546.0
-153.1712 -202.95183 546.0
-149.61545 -203.32355 547.0
-146.31218 -204.06696 549.0
-142.46184 -204.06696 549.0
-138.61151 -204.06696 549.0
-135.00667 -204.43867 550.0
-131.38779 -204.81038 551.0
-127.986336 -205.55379 553.0
-124.332375 -205.92549 554.0
-121.09923 -207.04062 557.0
-117.1928 -207.04062 557.0
-282.8197 -195.79823 517.0
-279.73383 -196.17696 518.0
-275.5679 -195.79823 517.0
-271.94202 -195.79823 517.0
-268.31613 -195.79823 517.0
-264.69022 -195.79823 517.0
-261.06433 -195.79823 517.0
-257.43845 -195.79823 517.0
-252.33974 -194.66206 514.0
-248.7349 -194.66206 514.0
-245.13005 -194.66206 514.0
-242.93486 -195.79823 517.0
-238.84608 -195.41953 516.0
-244.34454 -202.99391 536.0
-240.13654 -202.6152 535.0
-235.94258 -202.23647 534.0
-232.19743 -202.23647 534.0
-228.02452 -201.85776 533.0
-224.2864 -201.85776 533.0
-219.72073 -201.10031 531.0
-215.58987 -200.7216 530.0
-211.47304 -200.34286 529.0
-206.9775 -199.58543 527.0
-202.51001 -198.828 525.0
-198.07056 -198.07056 523.0
-194.0309 -197.69183 522.0
-190.00523 -197.31311 521.0
-186.35127 -197.31311 521.0
-182.69734 -197.31311 521.0
-179.0434 -197.31311 521.0
-175.72609 -197.69183 522.0
-172.72437 -198.44926 524.0
-169.37201 -198.828 525.0
-166.63681 -199.96416 528.0
-165.09387 -202.6152 535.0
-163.15118 -204.88751 541.0
-159.94608 -205.64496 543.0
-156.42538 -206.02367 544.0
-153.1712 -206.78111 546.0
-149.34193 -206.78111 546.0
-145.77916 -207.15984 547.0
-141.94286 -207.15984 547.0
-138.10657 -207.15984 547.0
-134.51573 -207.53856 548.0
-130.91089 -207.91727 549.0
-127.523445 -208.67471 551.0
-123.883514 -209.05344 552.0
-120.44698 -209.81087 554.0
-116.772 -210.1896 555.0
-112.67622 -209.81087 554.0
-108.79083 -209.81087 554.0
-104.90544 -209.81087 554.0
-97.310005 -210.1896 555.0
-279.53745 -197.10973 511.0
-277.0337 -197.88118 513.0
-273.96884 -198.26692 514.0
-270.364 -198.26692 514.0
-265.2022 -197.10973 511.0
-262.64233 -197.88118 513.0
-258.03458 -197.10973 511.0
-254.45074 -197.10973 511.0
-250.86694 -197.10973 511.0
-247.28314 -197.10973 511.0
-243.69933 -197.10973 511.0
-240.58539 -197.49545 512.0
-238.38321 -198.65266 515.0
-241.60934 -204.43866 530.0
-238.34114 -204.82439 531.0
-235.0589 -205.21013 532.0
-231.32779 -205.21013 532.0
-227.16888 -204.82439 531.0
-223.024 -204.43866 530.0
-218.89316 -204.05293 529.0
-215.18312 -204.05293 529.0
-211.07327 -203.66719 528.0
-206.9775 -203.28146 527.0
-202.51001 -202.51 525.0
-198.4493 -202.12425 524.0
-194.4026 -201.73853 523.0
-190.00523 -200.96706 521.0
-186.35127 -200.96706 521.0
-182.69734 -200.96706 521.0
-179.38705 -201.35278 522.0
-176.39938 -202.12425 524.0
-173.38364 -202.89574 526.0
-170.01723 -203.28146 527.0
-170.42401 -208.29599 540.0
-166.63681 -208.29599 540.0
-162.84961 -208.29599 540.0
-159.35696 -208.68173 541.0
-156.13785 -209.45319 543.0
-152.61014 -209.83893 544.0
-149.0684 -210.22466 545.0
-145.51265 -210.61038 546.0
-141.68336 -210.61038 546.0
-137.85408 -210.61038 546.0
-134.02481 -210.61038 546.0
-130.67244 -211.38185 548.0
-127.06057 -211.7676 549.0
-123.659096 -212.53906 551.0
-120.01216 -212.92479 552.0
-116.1408 -212.92479 552.0
-112.26945 -212.92479 552.0
-108.59447 -213.31053 553.0
-104.90544 -213.69626 554.0
-101.02005 -213.69626 554.0
-97.13467 -213.69626 554.0
-93.24929 -213.69626 554.0
-89.3639 -213.69626 554.0
-85.94138 -214.85345 557.0
-278.4434 -199.90805 509.0
-274.33356 -199.51529 508.0
-270.77078 -199.51529 508.0
-267.734 -199.90805 509.0
-263.64523 -199.51529 508.0
-260.08246 -199.51529 508.0
-256.0147 -199.12256 507.0
-252.95692 -199.51529 508.0
-249.88507 -199.90805 509.0
-247.28314 -200.69354 511.0
-243.69933 -200.69354 511.0
-240.1155 -200.69354 511.0
-237.92032 -201.87178 514.0
-241.15347 -207.76297 529.0
-237.89227 -208.15572 530.0
-234.1752 -208.15572 530.0
-230.45815 -208.15572 530.0
-226.74107 -208.15572 530.0
-222.60321 -207.76297 529.0
-218.47937 -207.37022 528.0
-215.18312 -207.76297 529.0
-210.67352 -206.97748 527.0
-206.58475 -206.58475 526.0
-202.51001 -206.19199 525.0
-198.4493 -205.79924 524.0
-194.4026 -205.4065 523.0
-190.36992 -205.01375 522.0
-187.06665 -205.4065 523.0
-183.39867 -205.4065 523.0
-180.07436 -205.79924 524.0
-177.07265 -206.58475 526.0
-176.35027 -210.11946 535.0
-173.88858 -211.69044 539.0
-170.42401 -212.08319 540.0
-166.32823 -211.69044 539.0
-162.84961 -212.08319 540.0
-159.06241 -212.08319 540.0
-155.56274 -212.47592 541.0
-152.04907 -212.86868 542.0
-148.52136 -213.26143 543.0
-144.97964 -213.65417 544.0
-141.68336 -214.43967 546.0
-137.85408 -214.43967 546.0
-134.02481 -214.43967 546.0
-130.19553 -214.43967 546.0
-126.597694 -214.83241 547.0
-123.43466 -216.01067 550.0
-119.79475 -216.40341 551.0
-115.72 -216.01067 550.0
-111.86267 -216.01067 550.0
-108.20171 -216.40341 551.0
-104.52672 -216.79614 552.0
-100.65536 -216.79614 552.0
-96.784004 -216.79614 552.0
-92.91264 -216.79614 552.0
-89.3639 -217.58165 554.0
-85.47851 -217.58165 554.0
-81.59312 -217.58165 554.0
-77.70773 -217.58165 554.0
-74.08886 -218.36713 556.0
-70.31569 -218.75989 557.0
-66.52847 -219.15263 558.0
-275.7082 -201.47905 504.0
-272.17343 -201.47905 504.0
-268.63873 -201.47905 504.0
-265.104 -201.47905 504.0
-261.5693 -201.47905 504.0
-258.54654 -201.87881 505.0
-256.0147 -202.67833 507.0
-252.45897 -202.67833 507.0
-248.90321 -202.67833 507.0
-245.83136 -203.0781 508.0
-242.2686 -203.0781 508.0
-239.64561 -203.87761 510.0
-237.45746 -205.07689 513.0
-241.60934 -211.87282 530.0
-237.44344 -211.47305 529.0
-233.73338 -211.47305 529.0
-230.0233 -211.47305 529.0
-226.31325 -211.47305 529.0
-222.1824 -211.0733 528.0
-218.06558 -210.67352 527.0
-214.36957 -210.67352 527.0
-210.67352 -210.67352 527.0
-206.58475 -210.27376 526.0
-202.89574 -210.27376 526.0
-198.828 -209.87401 525.0
-195.14601 -209.87401 525.0
-191.0993 -209.47424 524.0
-187.42432 -209.47424 524.0
-184.1 -209.87401 525.0
-180.418 -209.87401 525.0
-180.1024 -213.87161 535.0
-176.6799 -214.27136 536.0
-173.24336 -214.67113 537.0
-169.7928 -215.07089 538.0
-166.01962 -215.07089 538.0
-162.54805 -215.47066 539.0
-159.06241 -215.8704 540.0
-155.2752 -215.8704 540.0
-151.488 -215.8704 540.0
-148.24785 -216.66994 542.0
-144.71313 -217.0697 543.0
-141.42386 -217.8692 545.0
-137.85408 -218.26897 546.0
-134.02481 -218.26897 546.0
-130.19553 -218.26897 546.0
-126.597694 -218.66873 547.0
-123.43466 -219.868 550.0
-119.57734 -219.868 550.0
-115.72 -219.868 550.0
-111.86267 -219.868 550.0
-108.00535 -219.868 550.0
-104.147995 -219.868 550.0
-100.29067 -219.868 550.0
-96.433334 -219.868 550.0
-92.74432 -220.26776 551.0
-88.87998 -220.26776 551.0
-85.3242 -221.06729 553.0
-81.44584 -221.06729 553.0
-77.70773 -221.46706 554.0
-73.82236 -221.46706 554.0
-70.06321 -221.8668 555.0
-66.29002 -222.26657 556.0
-272.973 -202.97989 499.0
-270.01334 -203.38667 500.0
-267.5727 -204.20023 502.0
-264.052 -204.20023 502.0
-261.5693 -205.01376 504.0
-258.03458 -205.01376 504.0
-255.0048 -205.42055 505.0
-251.96101 -205.82732 506.0
-248.41228 -205.82732 506.0
-244.86354 -205.82732 506.0
-241.31479 -205.82732 506.0
-238.23592 -206.23409 507.0
-236.0688 -207.4544 510.0
-233.40375 -208.26796 512.0
-236.54572 -214.36955 527.0
-232.8497 -214.36955 527.0
-228.71883 -213.96278 526.0
-225.45763 -214.36955 527.0
-221.76161 -214.36955 527.0
-218.06558 -214.36955 527.0
-214.36957 -214.36955 527.0
-210.67352 -214.36955 527.0
-206.9775 -214.36955 527.0
-203.28148 -214.36955 527.0
-199.20674 -213.96278 526.0
-195.14601 -213.55602 525.0
-191.464 -213.55602 525.0
-188.13968 -213.96278 526.0
-185.15201 -214.77634 528.0
-183.5109 -217.21696 534.0
-180.1024 -217.62375 535.0
-176.6799 -218.03052 536.0
-173.24336 -218.4373 537.0
-169.4772 -218.4373 537.0
-166.01962 -218.84407 538.0
-162.24648 -218.84407 538.0
-158.47328 -218.84407 538.0
-155.2752 -219.6576 540.0
-151.488 -219.6576 540.0
-147.97433 -220.06438 541.0
-144.71313 -220.87793 543.0
-141.16437 -221.28471 544.0
-137.85408 -222.09824 546.0
-134.02481 -222.09824 546.0
-130.43398 -222.505 547.0
-126.82913 -222.91179 548.0
-123.43466 -223.72534 550.0
-119.57734 -223.72534 550.0
-115.72 -223.72534 550.0
-111.86267 -223.72534 550.0
-108.00535 -223.72534 550.0
-103.95864 -223.31856 549.0
-100.29067 -223.72534 550.0
-96.433334 -223.72534 550.0
-92.74432 -224.13213 551.0
-88.87998 -224.13213 551.0
-85.3242 -224.94568 553.0
-81.44584 -224.94568 553.0
-77.56747 -224.94568 553.0
-73.82236 -225.35242 554.0
-69.93697 -225.35242 554.0
-66.29002 -226.16597 556.0
-271.33185 -205.23819 496.0
-269.4733 -206.47955 499.0
-266.50668 -206.89334 500.0
-263.526 -207.30711 501.0
-259.49335 -206.89334 500.0
-255.47472 -206.47955 499.0
-251.97504 -206.47955 499.0
-249.96924 -207.7209 502.0
-246.93947 -208.13469 503.0
-243.41176 -208.13469 503.0
-239.40717 -207.7209 502.0
-236.82623 -208.54848 504.0
-234.21729 -209.37605 506.0
-239.33 -217.238 525.0
-235.64801 -217.238 525.0
-231.966 -217.238 525.0
-228.28401 -217.238 525.0
-225.02982 -217.6518 526.0
-221.76161 -218.06558 527.0
-218.47937 -218.47937 528.0
-215.18312 -218.89316 529.0
-211.47304 -218.89316 529.0
-207.76299 -218.89316 529.0
-204.05295 -218.89316 529.0
-199.96416 -218.47937 528.0
-195.88943 -218.06558 527.0
-192.19339 -218.06558 527.0
-189.5704 -219.30695 530.0
-187.25601 -220.9621 534.0
-183.5109 -220.9621 534.0
-180.1024 -221.37585 535.0
-176.6799 -221.78964 536.0
-172.92075 -221.78964 536.0
-169.4772 -222.20343 537.0
-165.71104 -222.20343 537.0
-161.94489 -222.20343 537.0
-158.17873 -222.20343 537.0
-155.2752 -223.4448 540.0
-151.488 -223.4448 540.0
-147.97433 -223.85858 541.0
-144.71313 -224.68617 543.0
-141.16437 -225.09996 544.0
-137.60161 -225.51375 545.0
-134.02481 -225.92754 546.0
-130.67244 -226.75511 548.0
-127.292015 -227.58266 550.0
-123.43466 -227.58266 550.0
-103.95864 -227.1689 549.0
-100.108315 -227.1689 549.0
-96.433334 -227.58266 550.0
-92.576004 -227.58266 550.0
-85.47851 -229.23781 554.0
-81.59312 -229.23781 554.0
-77.70773 -229.23781 554.0

