ply
format ascii 1.0
comment made by @arthurmuchir
element vertex 954
property float x
property float y
property float z
end_header
-87.330025 -111.147316 566.0
-98.888 -114.71008 564.0
-94.76417 -114.50669 563.0
-90.81567 -114.50669 563.0
-86.86714 -114.50669 563.0
-83.06592 -114.71008 564.0
-102.29648 -118.0344 561.0
-98.18667 -117.824 560.0
-94.2592 -117.824 560.0
-90.33175 -117.824 560.0
-86.40426 -117.824 560.0
-82.47681 -117.824 560.0
-78.689606 -118.0344 561.0
-81.55105 -128.7648 612.0
-77.51137 -129.1856 614.0
-110.361824 -122.186295 562.0
-106.23096 -121.96888 561.0
-102.114136 -121.75146 560.0
-97.836006 -121.316635 558.0
-93.58592 -120.88181 556.0
-89.686516 -120.88181 556.0
-85.6328 -120.6644 555.0
-81.59312 -120.44699 554.0
-85.56267 -132.62213 610.0
-81.55105 -133.05695 612.0
-77.51137 -133.49179 614.0
-73.44362 -133.9266 616.0
-69.572266 -134.79626 620.0
-117.6136 -125.45449 559.0
-113.89654 -125.67893 560.0
-109.96908 -125.67893 560.0
-105.85224 -125.45449 559.0
-101.56709 -125.005646 557.0
-97.48534 -124.78123 556.0
-93.24929 -124.33237 554.0
-89.04129 -123.883514 552.0
-85.015625 -123.65908 551.0
-81.004005 -123.43466 550.0
-85.4224 -136.67584 609.0
-81.28454 -136.90025 610.0
-77.25889 -137.34912 612.0
-73.20517 -137.79796 614.0
-121.96888 -129.83783 561.0
-117.6136 -129.37495 559.0
-113.48977 -129.14351 558.0
-109.57633 -129.14351 558.0
-105.28416 -128.68063 556.0
-101.02005 -128.21776 554.0
-96.60867 -127.52344 551.0
-92.40769 -127.060555 549.0
-88.396065 -126.8291 548.0
-84.244156 -126.366234 546.0
-88.957115 -139.78975 604.0
-85.14187 -140.48407 607.0
-81.15129 -140.94695 609.0
-77.13265 -141.40982 611.0
-73.08594 -141.87271 613.0
-130.06929 -134.01079 562.0
-125.90336 -133.77232 561.0
-121.53405 -133.29543 559.0
-117.1928 -132.81851 557.0
-113.286385 -132.81851 557.0
-108.98721 -132.34161 555.0
-104.52672 -131.62625 552.0
-100.473015 -131.3878 551.0
-95.732 -130.19553 546.0
-92.23937 -130.67244 548.0
-96.78401 -143.072 600.0
-92.576 -143.072 600.0
-88.80984 -143.78738 603.0
-85.0016 -144.50273 606.0
-81.15129 -145.2181 609.0
-77.00641 -145.45654 610.0
-134.24924 -138.19774 563.0
-129.60641 -137.46135 560.0
-125.23007 -136.97041 558.0
-121.31664 -136.97041 558.0
-117.1928 -136.72495 557.0
-112.8796 -136.23401 555.0
-108.79083 -135.98854 554.0
-104.147995 -135.00667 550.0
-99.74363 -134.27026 547.0
-95.732 -134.02481 546.0
-100.318726 -146.29814 596.0
-96.4614 -146.78908 598.0
-92.576 -147.28001 600.0
-88.66256 -147.77094 602.0
-85.0016 -148.7528 606.0
-137.46133 -141.3888 560.0
-133.05698 -140.88385 558.0
-128.9121 -140.63136 557.0
-125.00565 -140.63136 557.0
-121.09923 -140.63136 557.0
-117.403206 -140.88385 558.0
-113.286385 -140.63136 557.0
-115.86028 -148.9632 590.0
-111.91175 -149.21568 591.0
-107.94923 -149.46817 592.0
-104.148 -149.97313 594.0
-100.150406 -150.2256 595.0
-96.30009 -150.73056 597.0
-92.42171 -151.23553 599.0
-88.66256 -151.99297 602.0
-146.61374 -146.61372 565.0
-141.89377 -145.83527 562.0
-136.9704 -144.79729 558.0
-132.58006 -144.27829 556.0
-128.68065 -144.27829 556.0
-124.78123 -144.27829 556.0
-121.09923 -144.5378 557.0
-117.403206 -144.79729 558.0
-113.08299 -144.27829 556.0
-115.6639 -152.84158 589.0
-111.533035 -152.84158 589.0
-107.58453 -153.10107 590.0
-103.97267 -153.87955 593.0
-100.150406 -154.39853 595.0
-96.30009 -154.91751 597.0
-92.42171 -155.43651 599.0
-154.5388 -150.57628 565.0
-149.77676 -149.77673 562.0
-145.57576 -149.51024 561.0
-141.13632 -148.97722 559.0
-136.72495 -148.44421 557.0
-132.58006 -148.1777 556.0
-128.68065 -148.1777 556.0
-124.78123 -148.1777 556.0
-121.09923 -148.44421 557.0
-117.6136 -148.97722 559.0
-119.38798 -156.4394 587.0
-115.27116 -156.4394 587.0
-111.34367 -156.70592 588.0
-107.40218 -156.97243 589.0
-103.79734 -157.77194 592.0
-100.318726 -158.83798 596.0
-96.30009 -159.10448 597.0
-161.31367 -153.44472 561.0
-157.37921 -153.44472 561.0
-153.44473 -153.44472 561.0
-148.97725 -152.89767 559.0
-145.05676 -152.89767 559.0
-141.13632 -152.89767 559.0
-136.9704 -152.62415 558.0
-132.81851 -152.35063 557.0
-128.9121 -152.35063 557.0
-125.00565 -152.35063 557.0
-121.31664 -152.62415 558.0
-122.873604 -159.73567 584.0
-118.9812 -160.0092 585.0
-114.87841 -160.0092 585.0
-110.96495 -160.28271 586.0
-107.40218 -161.10327 589.0
-103.79734 -161.92383 592.0
-100.318726 -163.01791 596.0
-164.95361 -157.09866 560.0
-160.73859 -156.81813 559.0
-156.53761 -156.53758 558.0
-152.62416 -156.53758 558.0
-148.71074 -156.53758 558.0
-144.79727 -156.53758 558.0
-140.88383 -156.53758 558.0
-137.21587 -156.81813 559.0
-133.29543 -156.81813 559.0
-129.14354 -156.53758 558.0
-125.00565 -156.25706 557.0
-121.31664 -156.53758 558.0
-122.452805 -163.27039 582.0
-118.57443 -163.55093 583.0
-114.68204 -163.83145 584.0
-110.7756 -164.11198 585.0
-107.40218 -165.23413 589.0
-103.44667 -165.51466 590.0
-72.48981 -170.56425 608.0
-68.2257 -170.56425 608.0
-64.0668 -170.84479 609.0
-59.99206 -171.40585 611.0
-167.67479 -159.87593 556.0
-164.36447 -160.45102 558.0
-160.1635 -160.16348 557.0
-156.25706 -160.16348 557.0
-152.35065 -160.16348 557.0
-148.44423 -160.16348 557.0
-144.79727 -160.45102 558.0
-141.13632 -160.73857 559.0
-137.46133 -161.02612 560.0
-134.01079 -161.60121 562.0
-130.76361 -162.46385 565.0
-128.8209 -165.05177 574.0
-125.88232 -166.4895 579.0
-122.2424 -167.0646 581.0
-118.37105 -167.35216 582.0
-114.68204 -167.92723 584.0
-110.7756 -168.21478 585.0
-107.40218 -169.36497 589.0
-76.24897 -173.67818 604.0
-71.89367 -173.39062 603.0
-68.001274 -174.25327 606.0
-63.856403 -174.54082 607.0
-59.89387 -175.40346 610.0
-181.95392 -162.59714 552.0
-178.72778 -163.18625 554.0
-174.8424 -163.18625 554.0
-170.95703 -163.18625 554.0
-167.07164 -163.18625 554.0
-163.18623 -163.18625 554.0
-159.58841 -163.48082 555.0
-155.696 -163.48082 555.0
-152.07713 -163.77536 556.0
-148.44423 -164.06993 557.0
-144.79727 -164.3645 558.0
-141.13632 -164.65904 559.0
-137.7068 -165.24817 561.0
-134.72614 -166.4264 565.0
-130.99504 -166.72096 566.0
-128.59648 -168.7829 573.0
-125.23008 -169.66656 576.0
-121.8216 -170.55025 579.0
-118.167656 -171.13937 581.0
-114.68204 -172.02304 584.0
-110.7756 -172.31761 585.0
-83.739204 -175.85233 597.0
-79.6855 -176.1469 598.0
-75.74401 -176.73601 600.0
-71.65522 -177.03058 601.0
-67.55243 -177.32513 602.0
-63.7512 -178.50337 606.0
-59.795685 -179.38705 609.0
-184.47874 -165.26219 548.0
-180.96503 -165.56377 549.0
-178.72778 -167.07164 554.0
-169.4772 -161.94489 537.0
-166.01962 -162.24646 538.0
-162.54805 -162.54803 539.0
-159.06241 -162.84961 540.0
-159.01332 -166.77007 553.0
-155.41547 -167.07164 554.0
-152.35065 -167.97635 557.0
-148.71074 -168.27792 558.0
-145.05676 -168.57951 559.0
-141.38881 -168.88107 560.0
-137.7068 -169.18265 561.0
-134.72614 -170.38895 565.0
-131.22649 -170.99208 567.0
-128.14763 -172.19838 571.0
-125.23008 -173.70625 576.0
-121.611206 -174.30939 578.0
-118.167656 -175.21411 581.0
-114.68204 -176.11884 584.0
-95.49356 -178.53142 592.0
-91.49594 -178.833 593.0
-87.6316 -179.43614 595.0
-83.59894 -179.73772 596.0
-79.552246 -180.03928 597.0
-75.49153 -180.34087 598.0
-71.535995 -180.94402 600.0
-67.44021 -181.24557 601.0
-63.435604 -181.84872 603.0
-183.13219 -167.87115 544.0
-177.33914 -166.01964 538.0
-172.27551 -164.78528 534.0
-168.53041 -164.78528 534.0
-165.09387 -165.09387 535.0
-161.64331 -165.40247 536.0
-158.17873 -165.71104 537.0
-154.70012 -166.01964 538.0
-150.92694 -166.01964 538.0
-147.42729 -166.32822 539.0
-143.9136 -166.6368 540.0
-140.3859 -166.94539 541.0
-136.84416 -167.25398 542.0
-137.7068 -173.11711 561.0
-134.72614 -174.35147 565.0
-131.45793 -175.27724 568.0
-127.923195 -175.8944 570.0
-125.01267 -177.43735 575.0
-121.4008 -178.0545 577.0
-117.96427 -178.98027 580.0
-106.49045 -180.21461 584.0
-102.57001 -180.5232 585.0
-98.63553 -180.83179 586.0
-94.848335 -181.44896 588.0
-91.03306 -182.06615 590.0
-87.04248 -182.37473 591.0
-83.03787 -182.6833 592.0
-79.15249 -183.30048 594.0
-75.36529 -184.22624 597.0
-71.535995 -185.152 600.0
-67.327995 -185.152 600.0
-190.412 -171.3708 543.0
-185.5728 -170.424 540.0
-179.76578 -168.5304 534.0
-176.02063 -168.5304 534.0
-171.95291 -168.2148 533.0
-168.21481 -168.2148 533.0
-164.4767 -168.2148 533.0
-161.04018 -168.5304 534.0
-157.29503 -168.5304 534.0
-153.54991 -168.5304 534.0
-150.36588 -169.1616 536.0
-146.88025 -169.4772 537.0
-143.11409 -169.4772 537.0
-139.6074 -169.7928 538.0
-136.3392 -170.424 540.0
-132.552 -170.424 540.0
-129.00327 -170.7396 541.0
-131.45793 -179.2608 568.0
-127.923195 -179.892 570.0
-124.57784 -180.8388 573.0
-121.19041 -181.7856 576.0
-117.35411 -182.1012 577.0
-113.70017 -182.7324 579.0
-109.8288 -183.048 580.0
-106.308105 -183.9948 583.0
-102.21934 -183.9948 583.0
-98.4672 -184.626 585.0
-94.52572 -184.9416 586.0
-90.72447 -185.5728 588.0
-86.74792 -185.8884 589.0
-83.03787 -186.8352 592.0
-79.15249 -187.4664 594.0
-75.23905 -188.0976 596.0
-71.535995 -189.36 600.0
-189.36 -174.2112 540.0
-182.47993 -171.30768 531.0
-178.75584 -171.30768 531.0
-175.03177 -171.30768 531.0
-170.98508 -170.98506 530.0
-167.268 -170.98506 530.0
-163.85954 -171.30768 531.0
-160.43703 -171.6303 532.0
-157.00047 -171.95291 533.0
-153.54991 -172.27551 534.0
-149.80481 -172.27551 534.0
-146.0597 -172.27551 534.0
-142.58109 -172.59813 535.0
-139.08842 -172.92075 536.0
-135.58176 -173.24335 537.0
-132.552 -174.2112 540.0
-128.7648 -174.2112 540.0
-131.68938 -183.56699 569.0
-127.923195 -183.8896 570.0
-124.36043 -184.53482 572.0
-120.76961 -185.18005 574.0
-117.5575 -186.4705 578.0
-113.5038 -186.4705 578.0
-109.45007 -186.4705 578.0
-105.76107 -187.11572 580.0
-101.86867 -187.43834 581.0
-98.13057 -188.08356 583.0
-94.36441 -188.7288 585.0
-90.57018 -189.37402 587.0
-86.74792 -190.01924 589.0
-82.897606 -190.66447 591.0
-79.15249 -191.63232 594.0
-191.71648 -176.67989 536.0
-186.20401 -175.03175 531.0
-181.79263 -174.37251 529.0
-178.08258 -174.37251 529.0
-174.04288 -174.04288 528.0
-170.66246 -174.37251 529.0
-166.95241 -174.37251 529.0
-163.55093 -174.70213 530.0
-160.13545 -175.03175 531.0
-157.00047 -175.69101 533.0
-153.26237 -175.69101 533.0
-149.80481 -176.02063 534.0
-146.0597 -176.02063 534.0
-142.31458 -176.02063 534.0
-138.82893 -176.35027 535.0
-135.32928 -176.67989 536.0
-132.06107 -177.33914 538.0
-128.7648 -177.99838 540.0
-125.209045 -178.32802 541.0
-122.536964 -179.97615 546.0
-124.36043 -188.54645 572.0
-120.76961 -189.20569 574.0
-117.15073 -189.86496 576.0
-113.111046 -189.86496 576.0
-109.26072 -190.19458 577.0
-105.39637 -190.52422 578.0
-101.69334 -191.18346 580.0
-97.79392 -191.51308 581.0
-94.2031 -192.50197 584.0
-90.415886 -193.16122 586.0
-86.74792 -194.1501 589.0
-194.01686 -179.09247 532.0
-189.5704 -178.41919 530.0
-184.80135 -177.40927 527.0
-181.10532 -177.40927 527.0
-177.07265 -177.07263 526.0
-173.38364 -177.07263 526.0
-170.01723 -177.40927 527.0
-166.95241 -178.08255 529.0
-163.24236 -178.08255 529.0
-160.13545 -178.75583 531.0
-157.00047 -179.42911 533.0
-153.54991 -179.76575 534.0
-149.80481 -179.76575 534.0
-146.3332 -180.10239 535.0
-142.84758 -180.43904 536.0
-139.08842 -180.43904 536.0
-135.32928 -180.43904 536.0
-131.8156 -180.77567 537.0
-128.7648 -181.78558 540.0
-125.209045 -182.12224 541.0
-121.86368 -182.7955 543.0
-118.49027 -183.46878 545.0
-114.4576 -183.13216 544.0
-116.74396 -193.23135 574.0
-112.91468 -193.568 575.0
-109.07136 -193.90463 576.0
-105.21403 -194.24127 577.0
-101.518005 -194.91455 579.0
-97.79392 -195.58783 581.0
-94.2031 -196.59775 584.0
-202.2365 -183.5109 534.0
-198.11967 -183.16724 533.0
-192.92276 -181.79262 529.0
-188.49736 -181.10532 527.0
-184.45067 -180.76166 526.0
-180.76167 -180.76166 526.0
-176.73601 -180.41801 525.0
-173.38364 -180.76166 526.0
-170.01723 -181.10532 527.0
-166.63681 -181.44897 528.0
-163.24236 -181.79262 529.0
-160.13545 -182.47993 531.0
-157.29503 -183.5109 534.0
-153.83748 -183.85454 535.0
-150.36588 -184.1982 536.0
-146.60674 -184.1982 536.0
-143.11409 -184.54185 537.0
-139.6074 -184.88551 538.0
-135.83424 -184.88551 538.0
-132.30653 -185.22916 539.0
-128.52635 -185.22916 539.0
-124.977615 -185.57281 540.0
-121.63925 -186.26012 542.0
-118.05544 -186.60378 543.0
-114.4576 -186.94742 544.0
-110.64236 -186.94742 544.0
-112.7183 -197.25702 574.0
-109.07136 -197.94434 576.0
-105.21403 -198.288 577.0
-101.69334 -199.31894 580.0
-210.90497 -188.30801 537.0
-205.98161 -187.25601 534.0
-201.47905 -186.55467 532.0
-196.26114 -185.15201 528.0
-191.82869 -184.45067 526.0
-187.78201 -184.1 525.0
-183.74934 -183.74934 524.0
-180.418 -184.1 525.0
-176.73601 -184.1 525.0
-173.054 -184.1 525.0
-169.69461 -184.45067 526.0
-166.63681 -185.15201 528.0
-163.24236 -185.50267 529.0
-160.13545 -186.20401 531.0
-157.29503 -187.25601 534.0
-154.41257 -188.30801 537.0
-155.13493 -193.91867 553.0
-151.53009 -194.26935 554.0
-147.91121 -194.62001 555.0
-144.53778 -195.32133 557.0
-136.08672 -189.00934 539.0
-132.30653 -189.00934 539.0
-128.52635 -189.00934 539.0
-124.977615 -189.36002 540.0
-121.1904 -189.36002 540.0
-117.83803 -190.06134 542.0
-114.4576 -190.76266 544.0
-246.71506 -190.64345 533.0
-243.43282 -191.00113 534.0
-240.36098 -194.57793 544.0
-219.65761 -193.1472 540.0
-215.8704 -193.1472 540.0
-209.72672 -191.00113 534.0
-205.59587 -190.64345 533.0
-200.3429 -189.21274 529.0
-195.51772 -188.13968 526.0
-191.464 -187.782 525.0
-187.42432 -187.42433 524.0
-183.39867 -187.06665 523.0
-179.7307 -187.06665 523.0
-176.39938 -187.42433 524.0
-173.054 -187.782 525.0
-169.69461 -188.13968 526.0
-166.63681 -188.85504 528.0
-163.24236 -189.21274 529.0
-160.43703 -190.28577 532.0
-157.5896 -191.3588 535.0
-157.86311 -196.36633 549.0
-154.57387 -197.08168 551.0
-151.53009 -198.15472 554.0
-147.64471 -198.15472 554.0
-144.0188 -198.5124 555.0
-140.63136 -199.22777 557.0
-136.9704 -199.58545 558.0
-133.05698 -199.58545 558.0
-129.83784 -200.65848 561.0
-126.127785 -201.01616 562.0
-122.83854 -202.0892 565.0
-118.87601 -202.0892 565.0
-264.69022 -188.54646 517.0
-263.08417 -190.00522 521.0
-259.4302 -190.00522 521.0
-255.77628 -190.00522 521.0
-254.05801 -191.464 525.0
-251.32983 -192.19339 527.0
-247.1639 -191.82869 526.0
-243.47488 -191.82869 526.0
-241.60934 -193.28748 530.0
-239.6877 -194.74625 534.0
-239.91914 -198.02849 543.0
-235.24123 -197.29909 541.0
-231.447 -197.29909 541.0
-228.07361 -197.66379 542.0
-223.03102 -196.5697 539.0
-218.4373 -195.84032 537.0
-213.47183 -194.74625 534.0
-209.33398 -194.38156 533.0
-204.43867 -193.28748 530.0
-199.96416 -192.55809 528.0
-195.14601 -191.464 525.0
-191.0993 -191.0993 524.0
-187.06665 -190.73462 523.0
-183.39867 -190.73462 523.0
-179.7307 -190.73462 523.0
-176.39938 -191.0993 524.0
-173.054 -191.464 525.0
-169.69461 -191.82869 526.0
-166.63681 -192.55809 528.0
-163.55093 -193.28748 530.0
-160.7386 -194.38156 533.0
-159.06241 -196.9344 540.0
-157.86311 -200.21664 549.0
-154.57387 -200.94603 551.0
-150.98305 -201.31071 552.0
-147.64471 -202.0401 554.0
-143.7593 -202.0401 554.0
-140.1264 -202.4048 555.0
-136.47948 -202.7695 556.0
-132.58006 -202.7695 556.0
-128.9121 -203.13419 557.0
-125.454506 -203.86357 559.0
-122.186295 -204.95766 562.0
-118.6656 -205.68704 564.0
-114.91347 -206.05173 565.0
-270.91104 -194.03088 522.0
-266.73813 -193.65918 521.0
-263.08417 -193.65918 521.0
-259.4302 -193.65918 521.0
-256.2672 -194.03088 522.0
-253.5741 -194.77429 524.0
-249.42221 -194.40259 523.0
-245.75421 -194.40259 523.0
-242.54912 -194.77429 524.0
-239.78587 -195.5177 526.0
-242.38081 -200.7216 540.0
-238.59361 -200.7216 540.0
-234.80641 -200.7216 540.0
-230.16359 -199.9782 538.0
-225.54881 -199.23477 536.0
-221.78967 -199.23477 536.0
-217.21698 -198.49135 534.0
-213.47183 -198.49135 534.0
-208.54848 -197.37624 531.0
-204.05295 -196.63283 529.0
-199.58545 -195.8894 527.0
-195.14601 -195.146 525.0
-190.7346 -194.40259 523.0
-187.06665 -194.40259 523.0
-183.39867 -194.40259 523.0
-179.7307 -194.40259 523.0
-176.39938 -194.77429 524.0
-173.054 -195.146 525.0
-170.01723 -195.8894 527.0
-166.95241 -196.63283 529.0
-164.16812 -197.74794 532.0
-161.04018 -198.49135 534.0
-161.12431 -203.32355 547.0
-157.57558 -203.69525 548.0
-154.29333 -204.43867 550.0
-150.70953 -204.81038 551.0
-147.1117 -205.18208 552.0
-143.4998 -205.55379 553.0
-139.62144 -205.55379 553.0
-135.74307 -205.55379 553.0
-132.10316 -205.92549 554.0
-128.68065 -206.6689 556.0
-125.00565 -207.04062 557.0
-121.75147 -208.15573 560.0
-118.244804 -208.89914 562.0
-114.50671 -209.27084 563.0
-272.99402 -196.55566 519.0
-270.39206 -197.31311 521.0
-266.73813 -197.31311 521.0
-262.57922 -196.9344 520.0
-258.93228 -196.9344 520.0
-255.28534 -196.9344 520.0
-251.63841 -196.9344 520.0
-247.99147 -196.9344 520.0
-243.87463 -196.55566 519.0
-240.6976 -196.9344 520.0
-238.87415 -198.44926 524.0
-240.5854 -202.99391 536.0
-237.2681 -203.37263 537.0
-233.0671 -202.99391 536.0
-228.88014 -202.6152 535.0
-224.70721 -202.23647 534.0
-220.9621 -202.23647 534.0
-217.21698 -202.23647 534.0
-212.67232 -201.47903 532.0
-208.15575 -200.7216 530.0
-204.05295 -200.34286 529.0
-199.20674 -199.20671 526.0
-195.14601 -198.828 525.0
-191.0993 -198.44926 524.0
-187.06665 -198.07056 523.0
-183.39867 -198.07056 523.0
-179.7307 -198.07056 523.0
-176.39938 -198.44926 524.0
-173.38364 -199.20671 526.0
-170.01723 -199.58543 527.0
-167.5836 -201.10031 531.0
-164.7853 -202.23647 534.0
-164.05591 -206.02367 544.0
-160.82976 -206.78111 546.0
-157.00047 -206.78111 546.0
-153.73227 -207.53856 548.0
-150.436 -208.296 550.0
-146.57867 -208.296 550.0
-142.72133 -208.296 550.0
-139.11649 -208.67471 551.0
-135.4976 -209.05344 552.0
-131.8647 -209.43216 553.0
-128.21777 -209.81087 554.0
-124.55679 -210.1896 555.0
-121.31664 -211.32576 558.0
-118.0344 -212.46191 561.0
-114.09992 -212.46191 561.0
-110.16545 -212.46191 561.0
-106.42032 -212.84064 562.0
-102.47883 -212.84064 562.0
-98.53734 -212.84064 562.0
-94.93249 -213.59807 564.0
-91.138275 -213.9768 565.0
-87.17573 -213.9768 565.0
-83.50776 -214.73424 567.0
-79.67147 -215.11295 568.0
-75.9544 -215.8704 570.0
-72.083046 -216.2491 571.0
-68.07842 -216.2491 571.0
-281.1786 -198.26692 514.0
-278.11374 -198.65266 515.0
-275.5679 -199.42413 517.0
-271.94202 -199.42413 517.0
-268.8351 -199.80986 518.0
-265.2022 -199.80986 518.0
-261.06433 -199.42413 517.0
-256.9405 -199.03839 516.0
-251.84882 -197.88118 513.0
-248.25096 -197.88118 513.0
-245.13005 -198.26692 514.0
-241.52516 -198.26692 514.0
-239.30896 -199.42413 517.0
-243.88867 -206.36732 535.0
-239.6877 -205.98158 534.0
-235.94258 -205.98158 534.0
-232.19743 -205.98158 534.0
-228.02452 -205.59586 533.0
-224.2864 -205.59586 533.0
-220.13452 -205.21013 532.0
-215.99666 -204.82439 531.0
-211.8728 -204.43866 530.0
-208.15575 -204.43866 530.0
-204.05295 -204.05293 529.0
-199.20674 -202.89574 526.0
-195.14601 -202.51 525.0
-191.0993 -202.12425 524.0
-187.42432 -202.12425 524.0
-183.74934 -202.12425 524.0
-180.07436 -202.12425 524.0
-176.73601 -202.51 525.0
-173.71326 -203.28146 527.0
-171.6303 -205.21013 532.0
-169.1616 -206.75305 536.0
-167.25398 -209.06746 542.0
-163.75433 -209.45319 543.0
-160.24063 -209.83893 544.0
-156.71294 -210.22466 545.0
-153.1712 -210.61038 546.0
-149.61545 -210.99612 547.0
-146.04567 -211.38185 548.0
-142.72133 -212.15334 550.0
-138.864 -212.15334 550.0
-135.00667 -212.15334 550.0
-131.38779 -212.53906 551.0
-127.75489 -212.92479 552.0
-124.332375 -213.69626 554.0
-120.88181 -214.46773 556.0
-117.403206 -215.23918 558.0
-113.48977 -215.23918 558.0
-109.772705 -215.62492 559.0
-106.041595 -216.01067 560.0
-102.29648 -216.3964 561.0
-98.36201 -216.3964 561.0
-94.59585 -216.78212 562.0
-90.97697 -217.5536 564.0
-87.17573 -217.93932 565.0
-83.2132 -217.93932 565.0
-79.531204 -218.7108 567.0
-75.687904 -219.09651 568.0
-71.83057 -219.48225 569.0
-67.95919 -219.868 570.0
-64.18603 -220.63947 572.0
-280.0845 -201.08629 512.0
-277.0337 -201.47902 513.0
-273.96884 -201.87178 514.0
-270.364 -201.87178 514.0
-266.75916 -201.87178 514.0
-261.61838 -200.69354 511.0
-258.03458 -200.69354 511.0
-254.45074 -200.69354 511.0
-250.86694 -200.69354 511.0
-247.28314 -200.69354 511.0
-243.69933 -200.69354 511.0
-240.58539 -201.08629 512.0
-237.92032 -201.87178 514.0
-235.2272 -202.65727 516.0
-239.23883 -209.33397 533.0
-235.0589 -208.94121 532.0
-231.32779 -208.94121 532.0
-227.5967 -208.94121 532.0
-223.024 -208.15572 530.0
-219.30695 -208.15572 530.0
-215.58987 -208.15572 530.0
-211.47304 -207.76297 529.0
-207.76299 -207.76297 529.0
-203.6672 -207.37022 528.0
-199.58545 -206.97748 527.0
-195.14601 -206.19199 525.0
-191.464 -206.19199 525.0
-187.78201 -206.19199 525.0
-183.74934 -205.79924 524.0
-180.418 -206.19199 525.0
-177.40929 -206.97748 527.0
-174.3725 -207.76297 529.0
-173.24336 -210.90495 537.0
-170.42401 -212.08319 540.0
-166.9454 -212.47592 541.0
-163.15118 -212.47592 541.0
-159.94608 -213.26143 543.0
-156.42538 -213.65417 544.0
-152.89067 -214.04692 545.0
-149.34193 -214.43967 546.0
-145.51265 -214.43967 546.0
-142.20235 -215.22516 548.0
-138.61151 -215.6179 549.0
-135.00667 -216.01067 550.0
-131.38779 -216.40341 551.0
-127.75489 -216.79614 552.0
-124.10794 -217.18889 553.0
-120.664406 -217.97438 555.0
-117.1928 -218.75989 557.0
-113.286385 -218.75989 557.0
-109.57633 -219.15263 558.0
-105.66287 -219.15263 558.0
-101.749435 -219.15263 558.0
-98.01134 -219.54536 559.0
-94.42753 -220.33087 561.0
-90.65436 -220.72362 562.0
-86.71285 -220.72362 562.0
-83.06592 -221.50911 564.0
-79.25067 -221.90186 565.0
-75.28814 -221.90186 565.0
-71.45185 -222.29462 566.0
-67.72074 -223.0801 568.0
-63.961597 -223.86557 570.0
-278.4434 -203.47784 509.0
-275.95364 -204.27736 511.0
-271.3038 -203.47784 509.0
-266.682 -202.67833 507.0
-262.60727 -202.27856 506.0
-259.5705 -202.67833 507.0
-256.0147 -202.67833 507.0
-252.45897 -202.67833 507.0
-249.39415 -203.0781 508.0
-246.79921 -203.87761 510.0
-243.22241 -203.87761 510.0
-240.1155 -204.27736 511.0
-236.99457 -204.67712 512.0
-234.31548 -205.47665 514.0
-237.89227 -211.87282 530.0
-234.1752 -211.87282 530.0
-230.45815 -211.87282 530.0
-226.74107 -211.87282 530.0
-222.60321 -211.47305 529.0
-218.89316 -211.47305 529.0
-215.18312 -211.47305 529.0
-211.47304 -211.47305 529.0
-207.37025 -211.0733 528.0
-203.28148 -210.67352 527.0
-199.58545 -210.67352 527.0
-195.88943 -210.67352 527.0
-191.82869 -210.27376 526.0
-188.13968 -210.27376 526.0
-184.45067 -210.27376 526.0
-181.10532 -210.67352 527.0
-180.1024 -213.87161 535.0
-177.00952 -214.67113 537.0
-173.88858 -215.47066 539.0
-170.42401 -215.8704 540.0
-166.63681 -215.8704 540.0
-162.84961 -215.8704 540.0
-159.65152 -216.66994 542.0
-156.13785 -217.0697 543.0
-152.3296 -217.0697 543.0
-148.79489 -217.46947 544.0
-145.51265 -218.26897 546.0
-141.68336 -218.26897 546.0
-138.61151 -219.46826 549.0
-135.00667 -219.868 550.0
-131.14934 -219.868 550.0
-127.523445 -220.26776 551.0
-124.332375 -221.46706 554.0
-120.664406 -221.8668 555.0
-116.98241 -222.26657 556.0
-113.286385 -222.66634 557.0
-109.37996 -222.66634 557.0
-105.66287 -223.0661 558.0
-101.749435 -223.0661 558.0
-97.836006 -223.0661 558.0
-94.2592 -223.8656 560.0
-90.49305 -224.26537 561.0
-86.71285 -224.66513 562.0
-82.91864 -225.0649 563.0
-79.110405 -225.46466 564.0
-75.28814 -225.8644 565.0
-71.325615 -225.8644 565.0
-67.482285 -226.26416 566.0
-63.73717 -227.06369 568.0
-275.7082 -205.01376 504.0
-272.17343 -205.01376 504.0
-268.1057 -204.607 503.0
-265.104 -205.01376 504.0
-261.5693 -205.01376 504.0
-258.03458 -205.01376 504.0
-255.0048 -205.42055 505.0
-251.96101 -205.82732 506.0
-248.90321 -206.23409 507.0
-246.31529 -207.04764 509.0
-242.74551 -207.04764 509.0
-239.1757 -207.04764 509.0
-236.53168 -207.86118 511.0
-234.31548 -209.0815 514.0
-237.44344 -215.18309 529.0
-233.73338 -215.18309 529.0
-229.58849 -214.77634 528.0
-226.31325 -215.18309 529.0
-222.1824 -214.77634 528.0
-218.47937 -214.77634 528.0
-214.77634 -214.77634 528.0
-211.07327 -214.77634 528.0
-207.37025 -214.77634 528.0
-203.28148 -214.36955 527.0
-199.58545 -214.36955 527.0
-195.88943 -214.36955 527.0
-192.19339 -214.36955 527.0
-188.85506 -214.77634 528.0
-185.50267 -215.18309 529.0
-183.5109 -217.21696 534.0
-180.43906 -218.03052 536.0
-177.00952 -218.4373 537.0
-173.56598 -218.84407 538.0
-170.42401 -219.6576 540.0
-166.63681 -219.6576 540.0
-162.84961 -219.6576 540.0
-159.06241 -219.6576 540.0
-155.56274 -220.06438 541.0
-152.04907 -220.47116 542.0
-148.52136 -220.87793 543.0
-144.97964 -221.28471 544.0
-141.68336 -222.09824 546.0
-138.35904 -222.91179 548.0
-135.00667 -223.72534 550.0
-131.38779 -224.13213 551.0
-127.75489 -224.5389 552.0
-124.332375 -225.35242 554.0
-120.664406 -225.7592 555.0
-117.1928 -226.57275 557.0
-113.286385 -226.57275 557.0
-109.37996 -226.57275 557.0
-105.66287 -226.97954 558.0
-101.749435 -226.97954 558.0
-97.836006 -226.97954 558.0
-93.92257 -226.97954 558.0
-90.49305 -228.19983 561.0
-86.71285 -228.60661 562.0
-82.77136 -228.60661 562.0
-79.110405 -229.42017 564.0
-75.28814 -229.82693 565.0
-71.325615 -229.82693 565.0
-67.36306 -229.82693 565.0
-63.84939 -231.45403 569.0
-272.973 -206.47955 499.0
-270.55338 -207.30711 501.0
-267.5727 -207.7209 502.0
-264.052 -207.7209 502.0
-260.5313 -207.7209 502.0
-258.03458 -208.54848 504.0
-254.49983 -208.54848 504.0
-250.96512 -208.54848 504.0
-247.92134 -208.96227 505.0
-244.86354 -209.37605 506.0
-240.36098 -208.54848 504.0
-237.76604 -209.37605 506.0
-234.68016 -209.78984 507.0
-232.03615 -210.61742 509.0
-236.54572 -218.06558 527.0
-232.8497 -218.06558 527.0
-229.15366 -218.06558 527.0
-225.45763 -218.06558 527.0
-221.76161 -218.06558 527.0
-218.06558 -218.06558 527.0
-215.18312 -218.89316 529.0
-211.47304 -218.89316 529.0
-207.76299 -218.89316 529.0
-204.05295 -218.89316 529.0
-200.3429 -218.89316 529.0
-196.63284 -218.89316 529.0
-192.55807 -218.47937 528.0
-189.21272 -218.89316 529.0
-186.55467 -220.13452 532.0
-183.5109 -220.9621 534.0
-180.43906 -221.78964 536.0
-177.00952 -222.20343 537.0
-173.24336 -222.20343 537.0
-169.7928 -222.61722 538.0
-166.63681 -223.4448 540.0
-162.84961 -223.4448 540.0
-158.76784 -223.031 539.0
-155.2752 -223.4448 540.0
-152.04907 -224.27237 542.0
-148.52136 -224.68617 543.0
-144.97964 -225.09996 544.0
-141.68336 -225.92754 546.0
-138.61151 -227.1689 549.0
-135.00667 -227.58266 550.0
-131.38779 -227.99644 551.0
-127.75489 -228.41023 552.0
-97.66067 -230.47917 557.0
-93.75425 -230.47917 557.0

