ply
format ascii 1.0
comment made by @arthurmuchir
element vertex 1059
property float x
property float y
property float z
end_header
-67.29294 -92.08505 505.0
-64.00369 -92.449745 507.0
-73.93456 -95.05873 502.0
-70.55414 -95.24809 503.0
-67.15968 -95.43745 504.0
-63.624966 -95.43745 504.0
-60.32869 -95.81617 506.0
-80.97596 -98.579414 502.0
-77.30096 -98.38305 501.0
-73.64 -98.18667 500.0
-70.13334 -98.18667 500.0
-66.89318 -98.579414 502.0
-63.37249 -98.579414 502.0
-60.090237 -98.97217 504.0
-84.16 -101.69334 500.0
-80.330734 -101.28657 498.0
-76.83807 -101.28657 498.0
-73.492714 -101.489944 499.0
-69.99307 -101.489944 499.0
-66.493416 -101.489944 499.0
-63.37249 -102.10011 502.0
-60.090237 -102.50688 504.0
-83.15009 -103.9376 494.0
-80.00811 -104.3584 496.0
-76.529495 -104.3584 496.0
-73.19816 -104.5688 497.0
-69.852806 -104.7792 498.0
-66.493416 -104.9896 499.0
-63.37249 -105.620804 502.0
-123.51883 -103.48874 476.0
-120.18048 -103.48874 476.0
-116.84214 -103.48874 476.0
-113.50379 -103.48874 476.0
-110.628334 -103.92357 478.0
-107.500374 -104.14098 479.0
-104.358406 -104.3584 480.0
-101.4128 -104.79322 482.0
-86.43934 -107.18477 493.0
-83.15009 -107.40218 494.0
-79.6855 -107.40218 494.0
-76.2209 -107.40218 494.0
-73.05088 -107.83701 496.0
-69.852806 -108.271835 498.0
-66.493416 -108.48925 499.0
-63.37249 -109.141495 502.0
-126.32417 -106.378235 474.0
-122.99984 -106.378235 474.0
-119.675514 -106.378235 474.0
-116.351204 -106.378235 474.0
-113.265335 -106.60266 475.0
-110.628334 -107.27594 478.0
-107.72479 -107.72479 480.0
-104.358406 -107.72479 480.0
-89.53221 -110.19348 491.0
-86.08867 -110.19348 491.0
-82.64513 -110.19348 491.0
-79.5242 -110.64234 493.0
-76.2209 -110.86676 494.0
-72.75632 -110.86676 494.0
-69.99307 -111.98891 499.0
-66.493416 -111.98891 499.0
-129.6485 -109.70255 474.0
-126.32417 -109.70255 474.0
-122.48085 -109.23967 472.0
-119.17056 -109.23967 472.0
-116.351204 -109.70255 474.0
-113.02689 -109.70255 474.0
-110.39689 -110.39687 477.0
-107.500374 -110.85975 479.0
-104.358406 -111.09119 480.0
-92.59704 -113.17416 489.0
-89.16752 -113.17416 489.0
-85.91334 -113.40559 490.0
-82.64513 -113.63703 491.0
-79.36289 -113.86847 492.0
-76.2209 -114.33135 494.0
-72.75632 -114.33135 494.0
-172.80853 -104.91948 440.0
-169.72267 -104.91948 440.0
-166.63681 -104.91948 440.0
-164.29436 -105.396385 442.0
-161.55914 -105.634834 443.0
-159.1676 -106.11174 445.0
-129.10146 -112.54999 472.0
-125.52465 -112.31153 471.0
-121.96186 -112.07308 470.0
-119.17056 -112.54999 472.0
-116.105736 -112.78844 473.0
-113.265335 -113.26534 475.0
-110.39689 -113.74225 477.0
-107.500374 -114.219154 479.0
-99.45609 -116.6037 489.0
-95.8302 -116.365234 488.0
-92.218315 -116.12679 487.0
-88.98517 -116.365234 488.0
-85.73801 -116.6037 489.0
-82.47681 -116.84214 490.0
-79.20158 -117.080605 491.0
-76.2209 -117.79595 494.0
-172.02306 -107.514404 438.0
-169.72267 -108.00534 440.0
-166.63681 -108.00534 440.0
-163.92265 -108.25082 441.0
-161.19446 -108.49627 442.0
-159.1676 -109.23267 445.0
-132.13121 -115.614815 471.0
-128.82793 -115.614815 471.0
-125.25815 -115.36934 470.0
-121.96186 -115.36934 470.0
-119.17056 -115.86027 472.0
-116.105736 -116.10574 473.0
-113.265335 -116.59667 475.0
-110.39689 -117.087616 477.0
-102.464806 -119.542274 487.0
-99.04932 -119.542274 487.0
-95.43745 -119.296814 486.0
-92.02896 -119.296814 486.0
-88.802826 -119.542274 487.0
-85.73801 -120.03321 489.0
-82.64513 -120.52414 491.0
-79.36289 -120.769615 492.0
-172.41579 -110.83873 439.0
-169.72267 -111.0912 440.0
-166.63681 -111.0912 440.0
-163.92265 -111.34368 441.0
-161.19446 -111.59617 442.0
-158.80992 -112.10113 444.0
-156.39734 -112.60608 446.0
-135.14694 -118.6656 470.0
-131.85068 -118.6656 470.0
-128.5544 -118.6656 470.0
-125.25815 -118.6656 470.0
-122.22136 -118.91808 471.0
-119.17056 -119.17056 472.0
-116.351204 -119.67553 474.0
-113.265335 -119.928 475.0
-101.8336 -122.20033 484.0
-98.439156 -122.20033 484.0
-95.0447 -122.20033 484.0
-92.02896 -122.705284 486.0
-88.802826 -122.95776 487.0
-85.73801 -123.46273 489.0
-82.64513 -123.96768 491.0
-79.5242 -124.47265 493.0
-52.810402 -126.744965 502.0
-49.28971 -126.744965 502.0
-175.89441 -114.17707 440.0
-173.20128 -114.43656 441.0
-169.72267 -114.17707 440.0
-166.63681 -114.17707 440.0
-163.55093 -114.17707 440.0
-161.19446 -114.69606 442.0
-158.80992 -115.21505 444.0
-138.44319 -121.96187 470.0
-135.14694 -121.96187 470.0
-131.57014 -121.70238 469.0
-128.2809 -121.70238 469.0
-125.25815 -121.96187 470.0
-122.22136 -122.22137 471.0
-119.17056 -122.48086 472.0
-116.351204 -122.99985 474.0
-104.79323 -125.07579 482.0
-101.2024 -124.81629 481.0
-98.03238 -125.07579 482.0
-94.848335 -125.33528 483.0
-91.83959 -125.85427 485.0
-88.802826 -126.37326 487.0
-85.73801 -126.89225 489.0
-82.64513 -127.411224 491.0
-59.494102 -129.48718 499.0
-55.994453 -129.48718 499.0
-52.4948 -129.48718 499.0
-49.093338 -129.74667 500.0
-45.76902 -130.26566 502.0
-175.89441 -117.26293 440.0
-172.80853 -117.26293 440.0
-169.72267 -117.26293 440.0
-166.63681 -117.26293 440.0
-163.55093 -117.26293 440.0
-161.19446 -117.795944 442.0
-159.1676 -118.595474 445.0
-141.13634 -124.72512 468.0
-137.55952 -124.45861 467.0
-134.2843 -124.45861 467.0
-131.28961 -124.72512 468.0
-128.00737 -124.72512 468.0
-125.25815 -125.25813 470.0
-122.22136 -125.524635 471.0
-119.17056 -125.79114 472.0
-107.94923 -128.18971 481.0
-104.358406 -127.9232 480.0
-100.992004 -127.9232 480.0
-97.828995 -128.18971 481.0
-94.651955 -128.4562 482.0
-91.65024 -128.98923 484.0
-88.802826 -129.78874 487.0
-85.56267 -130.05525 488.0
-62.741287 -132.45381 497.0
-59.25565 -132.45381 497.0
-55.770027 -132.45381 497.0
-52.389603 -132.72032 498.0
-48.99515 -132.98682 499.0
-45.76902 -133.78635 502.0
-175.09488 -119.80175 438.0
-172.80853 -120.3488 440.0
-169.72267 -120.3488 440.0
-166.63681 -120.3488 440.0
-164.29436 -120.895836 442.0
-161.92383 -121.44287 444.0
-159.52527 -121.989914 446.0
-143.4928 -127.1868 465.0
-140.53319 -127.46032 466.0
-137.26497 -127.46032 466.0
-133.99675 -127.46032 466.0
-131.00908 -127.73383 467.0
-127.73385 -127.73383 467.0
-125.25815 -128.5544 470.0
-122.48085 -129.10144 472.0
-119.17056 -129.10144 472.0
-111.09121 -131.2896 480.0
-107.72479 -131.2896 480.0
-104.14098 -131.01607 479.0
-100.7816 -131.01607 479.0
-97.6256 -131.2896 480.0
-94.651955 -131.83664 482.0
-91.65024 -132.38367 484.0
-88.802826 -133.20424 487.0
-66.09366 -135.66592 496.0
-62.61505 -135.66592 496.0
-59.017193 -135.3924 495.0
-55.545597 -135.3924 495.0
-52.179203 -135.66592 496.0
-48.896965 -136.21295 498.0
-179.38705 -123.71519 441.0
-175.89441 -123.43466 440.0
-172.80853 -123.43466 440.0
-169.72267 -123.43466 440.0
-167.01553 -123.71519 441.0
-164.29436 -123.99573 442.0
-161.92383 -124.556786 444.0
-159.1676 -124.837326 445.0
-150.01521 -130.44798 465.0
-146.4384 -130.16747 464.0
-143.18422 -130.16747 464.0
-139.93004 -130.16747 464.0
-136.67584 -130.16747 464.0
-133.99675 -130.72853 466.0
-130.72853 -130.72853 466.0
-127.73385 -131.00906 467.0
-124.99164 -131.57013 469.0
-122.22136 -132.13118 471.0
-114.4576 -134.65599 480.0
-110.85977 -134.37546 479.0
-107.27594 -134.09492 478.0
-103.92357 -134.09492 478.0
-100.7816 -134.37546 479.0
-97.6256 -134.65599 480.0
-94.651955 -135.21706 482.0
-91.65024 -135.77812 484.0
-72.46176 -138.02238 492.0
-69.0112 -138.02238 492.0
-65.560646 -138.02238 492.0
-62.23633 -138.30293 493.0
-58.897972 -138.58347 494.0
-55.433388 -138.58347 494.0
-52.179203 -139.14453 496.0
-183.7213 -127.67071 444.0
-179.38705 -126.80807 441.0
-176.29416 -126.80807 441.0
-173.20128 -126.80807 441.0
-170.10841 -126.80807 441.0
-167.39426 -127.09561 442.0
-164.29436 -127.09561 442.0
-161.92383 -127.67071 444.0
-167.03656 -134.28429 467.0
-156.20097 -133.42165 464.0
-153.27641 -133.70918 465.0
-149.36998 -133.1341 463.0
-146.1228 -133.1341 463.0
-142.87564 -133.1341 463.0
-139.62846 -133.1341 463.0
-136.38127 -133.1341 463.0
-133.7092 -133.70918 465.0
-130.448 -133.70918 465.0
-127.46033 -133.99673 466.0
-124.458626 -134.28429 467.0
-121.70237 -134.85938 469.0
-119.17056 -135.72202 472.0
-116.59667 -136.58466 475.0
-113.50379 -136.8722 476.0
-110.39689 -137.15976 477.0
-107.27594 -137.4473 478.0
-103.92357 -137.4473 478.0
-100.7816 -137.73485 479.0
-97.828995 -138.30994 481.0
-94.651955 -138.59749 482.0
-79.20158 -141.1854 491.0
-75.758026 -141.1854 491.0
-72.31448 -141.1854 491.0
-68.87093 -141.1854 491.0
-65.42739 -141.1854 491.0
-62.23633 -141.7605 493.0
-58.897972 -142.04805 494.0
-55.545597 -142.33559 495.0
-52.179203 -142.62314 496.0
-186.8352 -130.78465 444.0
-183.3075 -130.49008 443.0
-179.38705 -129.90097 441.0
-176.29416 -129.90097 441.0
-173.59402 -130.19553 442.0
-170.49414 -130.19553 442.0
-167.39426 -130.19553 442.0
-165.03778 -130.78465 444.0
-161.92383 -130.78465 444.0
-166.67888 -137.26497 466.0
-163.06001 -136.97041 465.0
-159.45515 -136.67584 464.0
-155.86433 -136.3813 463.0
-152.28752 -136.08673 462.0
-149.04736 -136.08673 462.0
-145.8072 -136.08673 462.0
-142.56705 -136.08673 462.0
-139.32689 -136.08673 462.0
-136.38127 -136.3813 463.0
-133.13411 -136.3813 463.0
-130.16747 -136.67584 464.0
-126.91329 -136.67584 464.0
-124.192116 -137.26497 466.0
-121.44287 -137.8541 468.0
-118.91808 -138.73776 471.0
-116.105736 -139.32689 473.0
-113.02689 -139.62144 474.0
-110.16545 -140.21057 476.0
-107.05151 -140.50513 477.0
-103.92357 -140.7997 478.0
-100.7816 -141.09425 479.0
-97.6256 -141.38881 480.0
-82.30849 -144.03984 489.0
-78.87897 -144.03984 489.0
-75.295135 -143.7453 488.0
-72.01991 -144.03984 489.0
-68.73067 -144.33441 490.0
-65.42739 -144.62897 491.0
-62.11009 -144.92352 492.0
-58.897972 -145.51265 494.0
-55.657814 -146.10176 496.0
-186.41441 -133.59698 443.0
-182.89372 -133.29543 442.0
-179.79382 -133.29543 442.0
-176.69392 -133.29543 442.0
-173.59402 -133.29543 442.0
-170.49414 -133.29543 442.0
-168.15169 -133.89856 444.0
-165.40947 -134.20015 445.0
-162.28854 -134.20015 445.0
-164.89047 -139.02531 461.0
-162.00801 -139.32689 462.0
-158.08054 -138.72374 460.0
-154.8544 -138.72374 460.0
-151.62827 -138.72374 460.0
-148.40215 -138.72374 460.0
-145.49161 -139.02531 461.0
-142.56705 -139.32689 462.0
-139.32689 -139.32689 462.0
-136.08672 -139.32689 462.0
-133.13411 -139.62846 463.0
-129.88693 -139.62846 463.0
-126.63977 -139.62846 463.0
-124.192116 -140.53317 466.0
-121.18339 -140.83475 467.0
-118.6656 -141.73947 470.0
-115.86027 -142.34262 472.0
-112.78844 -142.6442 473.0
-109.70257 -142.94577 474.0
-106.827095 -143.54892 476.0
-103.92357 -144.15205 478.0
-100.7816 -144.45364 479.0
-88.62048 -146.56465 486.0
-85.212006 -146.56465 486.0
-81.80353 -146.56465 486.0
-78.55636 -146.86623 487.0
-75.14085 -146.86623 487.0
-71.872635 -147.16779 488.0
-189.09349 -136.39531 442.0
-185.5728 -136.08672 441.0
-182.89372 -136.39531 442.0
-179.79382 -136.39531 442.0
-176.69392 -136.39531 442.0
-173.59402 -136.39531 442.0
-171.26561 -137.01248 444.0
-168.53041 -137.32108 445.0
-165.78119 -137.62965 446.0
-163.7473 -138.5554 449.0
-161.67136 -139.48117 452.0
-159.55334 -140.40694 455.0
-156.70593 -140.71552 456.0
-153.8445 -141.02411 457.0
-150.96901 -141.33269 458.0
-148.07951 -141.64128 459.0
-145.17601 -141.94987 460.0
-142.25845 -142.25845 461.0
-139.02531 -142.25845 461.0
-135.79216 -142.25845 461.0
-132.84656 -142.56705 462.0
-129.6064 -142.56705 462.0
-126.63977 -142.87564 463.0
-123.92561 -143.4928 465.0
-121.18339 -144.10997 467.0
-118.16064 -144.41856 468.0
-115.61481 -145.34431 471.0
-112.54998 -145.65291 472.0
-109.70257 -146.27008 474.0
-106.60266 -146.57867 475.0
-103.70616 -147.19585 477.0
-94.651955 -148.73877 482.0
-91.46088 -149.04736 483.0
-88.07344 -149.04736 483.0
-84.861336 -149.35596 484.0
-81.46689 -149.35596 484.0
-78.23374 -149.66454 485.0
-75.14085 -150.28171 487.0
-71.872635 -150.5903 488.0
-193.06303 -140.1264 444.0
-189.09349 -139.4952 442.0
-185.5728 -139.1796 441.0
-182.47993 -139.1796 441.0
-179.38705 -139.1796 441.0
-176.29416 -139.1796 441.0
-173.59402 -139.4952 442.0
-171.26561 -140.1264 444.0
-168.90913 -140.7576 446.0
-166.1529 -141.0732 447.0
-163.7473 -141.7044 449.0
-161.31367 -142.3356 451.0
-158.50134 -142.6512 452.0
-156.01863 -143.2824 454.0
-153.1712 -143.598 455.0
-150.63939 -144.2292 457.0
-147.75691 -144.5448 458.0
-144.86041 -144.8604 459.0
-142.25845 -145.49161 461.0
-139.02531 -145.49161 461.0
-135.79216 -145.49161 461.0
-132.84656 -145.8072 462.0
-129.6064 -145.8072 462.0
-126.91329 -146.4384 464.0
-123.92561 -146.754 465.0
-120.9239 -147.0696 466.0
-118.16064 -147.7008 468.0
-115.36934 -148.332 470.0
-112.31152 -148.6476 471.0
-109.47114 -149.2788 473.0
-106.37824 -149.5944 474.0
-98.03238 -152.1192 482.0
-94.651955 -152.1192 482.0
-91.08216 -151.8036 481.0
-87.89109 -152.1192 482.0
-84.51067 -152.1192 482.0
-81.46689 -152.7504 484.0
-78.23374 -153.066 485.0
-74.98656 -153.3816 486.0
-71.872635 -154.0128 488.0
-193.06303 -143.24031 444.0
-189.09349 -142.5951 442.0
-185.15201 -141.94986 440.0
-182.06615 -141.94986 440.0
-178.98027 -141.94986 440.0
-176.29416 -142.27248 441.0
-173.59402 -142.5951 442.0
-171.26561 -143.24031 444.0
-168.90913 -143.88554 446.0
-166.1529 -144.20815 447.0
-163.38261 -144.53078 448.0
-160.59831 -144.8534 449.0
-158.15067 -145.49861 451.0
-155.33131 -145.82123 452.0
-152.83458 -146.46645 454.0
-150.30977 -147.11168 456.0
-147.4343 -147.4343 457.0
-144.5448 -147.75691 458.0
-141.94987 -148.40213 460.0
-139.02531 -148.72475 461.0
-136.08672 -149.04735 462.0
-132.84656 -149.04735 462.0
-129.6064 -149.04735 462.0
-126.63977 -149.36996 463.0
-123.92561 -150.0152 465.0
-120.9239 -150.33781 466.0
-118.16064 -150.98303 468.0
-115.12387 -151.30565 469.0
-112.073074 -151.62827 470.0
-109.23969 -152.2735 472.0
-106.37824 -152.91872 474.0
-103.70616 -153.88655 477.0
-100.992004 -154.8544 480.0
-97.6256 -154.8544 480.0
-94.25921 -154.8544 480.0
-90.89279 -154.8544 480.0
-87.526405 -154.8544 480.0
-84.51067 -155.49962 482.0
-81.29857 -155.82224 483.0
-78.23374 -156.46745 485.0
-74.98656 -156.79008 486.0
-192.19339 -145.69498 442.0
-188.23787 -145.03574 440.0
-185.15201 -145.03574 440.0
-181.65236 -144.7061 439.0
-178.98027 -145.03574 440.0
-176.29416 -145.36536 441.0
-173.59402 -145.69498 442.0
-170.87987 -146.02461 443.0
-168.53041 -146.68385 445.0
-165.78119 -147.01349 446.0
-163.38261 -147.67274 448.0
-160.59831 -148.00237 449.0
-157.8 -148.332 450.0
-155.33131 -148.99124 452.0
-152.83458 -149.65051 454.0
-149.98013 -149.98013 455.0
-147.4343 -150.63937 457.0
-144.5448 -150.96901 458.0
-141.94987 -151.62827 460.0
-139.02531 -151.95789 461.0
-135.79216 -151.95789 461.0
-132.55902 -151.95789 461.0
-129.6064 -152.28752 462.0
-126.63977 -152.61714 463.0
-123.6591 -152.94676 464.0
-120.9239 -153.60602 466.0
-117.90816 -153.93565 467.0
-114.8784 -154.26527 468.0
-111.834625 -154.59491 469.0
-109.00825 -155.25415 471.0
-106.37824 -156.24304 474.0
-103.70616 -157.23192 477.0
-100.571205 -157.56154 478.0
-97.218834 -157.56154 478.0
-94.062836 -157.89116 479.0
-90.70344 -157.89116 479.0
-87.526405 -158.2208 480.0
-84.51067 -158.88005 482.0
-81.46689 -159.5393 484.0
-78.23374 -159.86893 485.0
-194.4096 -148.12158 440.0
-191.32375 -148.12158 440.0
-187.38225 -147.44832 438.0
-184.31041 -147.44832 438.0
-181.65236 -147.78496 439.0
-178.98027 -148.12158 440.0
-176.29416 -148.45824 441.0
-173.59402 -148.79488 442.0
-170.49414 -148.79488 442.0
-168.15169 -149.46815 444.0
-165.78119 -150.14143 446.0
-163.38261 -150.8147 448.0
-160.59831 -151.15135 449.0
-158.15067 -151.82463 451.0
-155.33131 -152.16127 452.0
-152.83458 -152.83455 454.0
-149.98013 -153.17119 455.0
-147.4343 -153.84447 457.0
-144.5448 -154.1811 458.0
-141.94987 -154.85439 460.0
-139.02531 -155.19104 461.0
-135.79216 -155.19104 461.0
-132.84656 -155.52766 462.0
-129.6064 -155.52766 462.0
-126.63977 -155.8643 463.0
-123.3926 -155.8643 463.0
-120.6644 -156.53758 465.0
-117.655685 -156.87424 466.0
-114.632935 -157.21088 467.0
-111.59617 -157.5475 468.0
-108.77681 -158.2208 470.0
-105.92938 -158.89407 472.0
-103.27134 -159.90399 475.0
-100.150406 -160.24063 476.0
-97.01545 -160.57727 477.0
-93.86647 -160.91391 478.0
-90.51408 -160.91391 478.0
-87.34405 -161.25055 479.0
-84.16 -161.58719 480.0
-81.46689 -162.93375 484.0
-194.4096 -151.20747 440.0
-190.45407 -150.52017 438.0
-187.38225 -150.52017 438.0
-184.31041 -150.52017 438.0
-181.23856 -150.52017 438.0
-178.57352 -150.86383 439.0
-175.89441 -151.20747 440.0
-173.59402 -151.89479 442.0
-170.49414 -151.89479 442.0
-168.15169 -152.58209 444.0
-165.40947 -152.92574 445.0
-163.38261 -153.95671 448.0
-160.59831 -154.30035 449.0
-158.15067 -154.98766 451.0
-155.67496 -155.67497 453.0
-152.83458 -156.01863 454.0
-149.98013 -156.36227 455.0
-147.4343 -157.04959 457.0
-144.5448 -157.39323 458.0
-141.94987 -158.08054 460.0
-138.72374 -158.08054 460.0
-135.79216 -158.4242 461.0
-132.84656 -158.76785 462.0
-129.88693 -159.11151 463.0
-126.63977 -159.11151 463.0
-123.3926 -159.11151 463.0
-120.6644 -159.79881 465.0
-117.403206 -159.79881 465.0
-114.632935 -160.48611 467.0
-111.59617 -160.82976 468.0
-108.54537 -161.17343 469.0
-105.92938 -162.20439 472.0
-103.05392 -162.8917 474.0
-99.72961 -162.8917 474.0
-96.81206 -163.579 476.0
-93.67009 -163.92265 477.0
-90.51408 -164.26631 478.0
-87.161705 -164.26631 478.0
-193.08409 -153.24135 437.0
-190.01926 -153.24135 437.0
-186.95444 -153.24135 437.0
-183.8896 -153.24135 437.0
-180.82478 -153.24135 437.0
-178.16673 -153.59201 438.0
-175.89441 -154.29333 440.0
-173.59402 -154.99467 442.0
-170.49414 -154.99467 442.0
-168.53041 -156.04668 445.0
-165.78119 -156.39734 446.0
-163.38261 -157.09868 448.0
-160.59831 -157.44934 449.0
-158.15067 -158.15067 451.0
-156.01863 -159.20267 454.0
-152.83458 -159.20267 454.0
-150.30977 -159.904 456.0
-147.75691 -160.60535 458.0
-144.5448 -160.60535 458.0
-141.94987 -161.30667 460.0
-138.72374 -161.30667 460.0
-135.79216 -161.65735 461.0
-132.84656 -162.00801 462.0
-129.6064 -162.00801 462.0
-126.36625 -162.00801 462.0
-123.3926 -162.35867 463.0
-120.14541 -162.35867 463.0
-117.403206 -163.06001 465.0
-114.387474 -163.41068 466.0
-111.35771 -163.76134 467.0
-108.313934 -164.11201 468.0
-105.70496 -165.16402 471.0
-102.619095 -165.51466 472.0
-99.72961 -166.21602 474.0
-96.81206 -166.91734 476.0
-93.47372 -166.91734 476.0
-90.324715 -167.26802 477.0
-193.08409 -156.30617 437.0
-189.58443 -155.94849 436.0
-186.52661 -155.94849 436.0
-183.46881 -155.94849 436.0
-180.82478 -156.30617 437.0
-178.16673 -156.66385 438.0
-175.49463 -157.02153 439.0
-173.20128 -157.73688 441.0
-170.49414 -158.09456 442.0
-168.15169 -158.80994 444.0
-165.78119 -159.52528 446.0
-163.38261 -160.24065 448.0
-160.59831 -160.59833 449.0
-158.15067 -161.31369 451.0
-156.01863 -162.38673 454.0
-152.83458 -162.38673 454.0
-150.30977 -163.10208 456.0
-147.4343 -163.45976 457.0
-144.5448 -163.81744 458.0
-141.94987 -164.5328 460.0
-139.02531 -164.89049 461.0
-135.79216 -164.89049 461.0
-132.55902 -164.89049 461.0
-129.6064 -165.24817 462.0
-126.36625 -165.24817 462.0
-123.12609 -165.24817 462.0
-120.14541 -165.60585 463.0
-117.15072 -165.96353 464.0
-114.142006 -166.3212 465.0
-111.35771 -167.03656 467.0
-108.313934 -167.39424 468.0
-105.48053 -168.1096 470.0
-102.619095 -168.82497 472.0
-99.72961 -169.54033 474.0
-96.81206 -170.25568 476.0
-192.64226 -159.0063 436.0
-189.58443 -159.0063 436.0
-186.52661 -159.0063 436.0
-183.46881 -159.0063 436.0
-180.41101 -159.0063 436.0
-178.16673 -159.73569 438.0
-175.09488 -159.73569 438.0
-172.80853 -160.46507 440.0
-170.49414 -161.19446 442.0
-168.15169 -161.92384 444.0
-165.78119 -162.65323 446.0
-163.38261 -163.38261 448.0
-160.59831 -163.7473 449.0
-158.15067 -164.4767 451.0
-156.01863 -165.57077 454.0
-153.1712 -165.93547 455.0
-150.63939 -166.66486 457.0
-147.4343 -166.66486 457.0
-144.5448 -167.02956 458.0
-141.94987 -167.75893 460.0
-139.02531 -168.12363 461.0
-135.79216 -168.12363 461.0
-132.55902 -168.12363 461.0
-129.32587 -168.12363 461.0
-126.36625 -168.48831 462.0
-123.12609 -168.48831 462.0
-120.14541 -168.85301 463.0
-116.89824 -168.85301 463.0
-114.142006 -169.5824 465.0
-110.880806 -169.5824 465.0
-108.08249 -170.31178 467.0
-105.03168 -170.67648 468.0
-102.40168 -171.77057 471.0
-99.5192 -172.49995 473.0
-56.99034 -174.32341 478.0
-53.525757 -173.95872 477.0
-50.285603 -174.32341 478.0
-47.129604 -175.0528 480.0
-196.59776 -162.80751 438.0
-193.08409 -162.4358 437.0
-189.58443 -162.0641 436.0
-186.0988 -161.6924 435.0
-183.46881 -162.0641 436.0
-180.41101 -162.0641 436.0
-178.16673 -162.80751 438.0
-175.49463 -163.17923 439.0
-172.80853 -163.55093 440.0
-170.49414 -164.29434 442.0
-168.15169 -165.03775 444.0
-165.40947 -165.40947 445.0
-163.38261 -166.52458 448.0
-160.95601 -167.268 450.0
-158.50134 -168.01141 452.0
-156.01863 -168.75482 454.0
-153.1712 -169.12653 455.0
-150.63939 -169.86993 457.0
-147.75691 -170.24165 458.0
-144.86041 -170.61336 459.0
-141.94987 -170.98508 460.0
-139.02531 -171.35678 461.0
-135.79216 -171.35678 461.0
-132.27147 -170.98508 460.0
-129.04533 -170.98508 460.0
-126.09273 -171.35678 461.0
-123.12609 -171.72849 462.0
-119.88592 -171.72849 462.0
-116.89824 -172.10019 463.0
-113.65107 -172.10019 463.0
-110.880806 -172.8436 465.0
-107.85104 -173.2153 466.0
-105.03168 -173.95872 468.0
-102.18427 -174.70213 470.0
-99.098404 -175.07384 471.0
-66.76694 -176.93237 476.0
-63.42859 -176.93237 476.0
-60.09025 -176.93237 476.0
-56.75189 -176.93237 476.0
-53.413548 -176.93237 476.0
-50.075203 -176.93237 476.0
-46.835045 -177.30408 477.0
-201.94894 -167.77295 443.0
-196.59776 -165.87935 438.0
-192.64226 -165.12192 436.0
-189.58443 -165.12192 436.0
-186.52661 -165.12192 436.0
-183.46881 -165.12192 436.0
-180.41101 -165.12192 436.0
-177.75996 -165.50064 437.0
-175.49463 -166.25807 439.0
-172.80853 -166.6368 440.0
-170.49414 -167.39424 442.0
-168.15169 -168.15167 444.0
-165.40947 -168.5304 445.0
-163.38261 -169.66655 448.0
-161.31367 -170.80272 451.0
-158.50134 -171.18144 452.0
-156.01863 -171.93887 454.0
-153.50784 -172.69632 456.0
-150.63939 -173.07503 457.0
-147.75691 -173.45375 458.0
-144.5448 -173.45375 458.0
-141.94987 -174.2112 460.0
-138.72374 -174.2112 460.0
-135.49759 -174.2112 460.0
-132.27147 -174.2112 460.0
-129.04533 -174.2112 460.0
-126.09273 -174.58992 461.0
-122.85958 -174.58992 461.0
-119.88592 -174.96863 462.0
-116.64576 -174.96863 462.0
-113.65107 -175.34735 463.0
-110.64236 -175.72607 464.0
-107.61961 -176.1048 465.0
-104.80725 -176.86223 467.0
-101.749435 -177.24095 468.0
-89.75664 -179.51328 474.0
-86.43232 -179.51328 474.0
-83.108 -179.51328 474.0
-79.447044 -178.75583 472.0
-76.298065 -179.13455 473.0
-73.13504 -179.51328 474.0
-69.81072 -179.51328 474.0
-66.486404 -179.51328 474.0
-63.028835 -179.13455 473.0
-59.83777 -179.51328 474.0
-56.513435 -179.51328 474.0
-53.18912 -179.51328 474.0
-49.97 -179.892 475.0
-46.73686 -180.27072 476.0
-209.53737 -167.02252 433.0
-207.4544 -167.79399 435.0
-201.0372 -170.10838 441.0
-196.14891 -168.56546 437.0
-192.64226 -168.17973 436.0
-189.58443 -168.17973 436.0
-186.0988 -167.79399 435.0
-183.46881 -168.17973 436.0
-180.41101 -168.17973 436.0
-177.75996 -168.56546 437.0
-175.09488 -168.95119 438.0
-172.80853 -169.72266 440.0
-170.49414 -170.49413 442.0
-168.53041 -171.65134 445.0
-165.78119 -172.03706 446.0
-163.7473 -173.19426 449.0
-161.31367 -173.96573 451.0
-158.50134 -174.35146 452.0
-156.36227 -175.50865 455.0
-153.50784 -175.8944 456.0
-150.96901 -176.66586 458.0
-147.4343 -176.28014 457.0
-144.2292 -176.28014 457.0
-141.3327 -176.66586 458.0
-138.72374 -177.43733 460.0
-135.49759 -177.43733 460.0
-132.27147 -177.43733 460.0
-129.04533 -177.43733 460.0
-125.81921 -177.43733 460.0
-122.85958 -177.82306 461.0
-119.36693 -177.43733 460.0
-116.39328 -177.82306 461.0
-113.4056 -178.20879 462.0
-110.4039 -178.59453 463.0
-107.15673 -178.59453 463.0
-104.582825 -179.75172 466.0
-101.749435 -180.5232 468.0
-98.4672 -180.5232 468.0
-95.38836 -180.90894 469.0
-92.29548 -181.29466 470.0
-89.18856 -181.68039 471.0
-86.06763 -182.06613 472.0
-82.75734 -182.06613 472.0
-79.447044 -182.06613 472.0
-76.13676 -182.06613 472.0
-72.82645 -182.06613 472.0
-69.51616 -182.06613 472.0
-66.34614 -182.45186 473.0
-62.89558 -182.06613 472.0
-59.71153 -182.45186 473.0
-56.39421 -182.45186 473.0
-53.18912 -182.83759 474.0
-49.97 -183.22333 475.0
-46.73686 -183.60905 476.0
-202.74146 -172.02304 438.0
-199.6696 -172.02304 438.0
-196.59776 -172.02304 438.0
-192.64226 -171.23753 436.0
-189.58443 -171.23753 436.0
-186.0988 -170.84479 435.0
-183.46881 -171.23753 436.0
-180.41101 -171.23753 436.0
-177.75996 -171.63028 437.0
-175.09488 -172.02304 438.0
-172.80853 -172.80853 440.0
-170.87987 -173.98677 443.0
-168.53041 -174.77226 445.0
-166.1529 -175.55775 447.0
-163.7473 -176.34325 449.0
-161.67136 -177.52148 452.0
-159.20267 -178.30698 454.0
-156.36227 -178.69972 455.0
-153.50784 -179.09247 456.0
-150.63939 -179.48521 457.0
-147.4343 -179.48521 457.0
-144.2292 -179.48521 457.0
-141.02411 -179.48521 457.0
-138.1206 -179.87796 458.0
-135.20303 -180.2707 459.0
-131.98392 -180.2707 459.0
-128.48427 -179.87796 458.0
-125.54569 -180.2707 459.0
-122.59308 -180.66345 460.0
-119.36693 -180.66345 460.0
-116.1408 -180.66345 460.0
-113.16014 -181.0562 461.0
-110.16545 -181.44896 462.0
-106.92529 -181.44896 462.0
-104.3584 -182.62718 465.0
-101.53203 -183.41267 467.0
-98.4672 -183.80544 468.0
-95.18497 -183.80544 468.0
-91.90273 -183.80544 468.0
-88.80984 -184.19818 469.0
-85.520584 -184.19818 469.0
-82.40667 -184.59091 470.0
-79.110405 -184.59091 470.0
-75.81415 -184.59091 470.0
-72.51786 -184.59091 470.0
-69.36888 -184.98367 471.0
-66.20587 -185.3764 472.0
-62.89558 -185.3764 472.0
-59.58529 -185.3764 472.0
-56.39421 -185.76917 473.0
-53.18912 -186.16191 474.0
-50.075203 -186.9474 476.0
-196.59776 -175.09488 438.0
-192.64226 -174.29536 436.0
-189.58443 -174.29536 436.0
-186.0988 -173.89561 435.0
-183.46881 -174.29536 436.0
-180.41101 -174.29536 436.0
-177.75996 -174.69513 437.0
-175.49463 -175.49464 439.0
-172.80853 -175.89441 440.0
-170.87987 -177.09369 443.0
-168.53041 -177.89322 445.0
-166.5246 -179.0925 448.0
-164.4767 -180.29176 451.0
-161.67136 -180.69153 452.0
-159.20267 -181.49104 454.0
-156.70593 -182.29056 456.0
-153.50784 -182.29056 456.0
-150.30977 -182.29056 456.0
-147.4343 -182.69032 457.0
-144.2292 -182.69032 457.0
-141.02411 -182.69032 457.0
-137.81903 -182.69032 457.0
-134.61392 -182.69032 457.0
-131.40883 -182.69032 457.0
-128.48427 -183.0901 458.0
-125.27217 -183.0901 458.0
-122.06007 -183.0901 458.0
-118.84794 -183.0901 458.0
-115.88832 -183.48985 459.0
-112.91467 -183.88962 460.0
-110.16545 -184.68913 462.0
-106.92529 -184.68913 462.0
-103.90954 -185.0889 463.0
-101.097206 -185.88841 465.0
-98.0464 -186.28816 466.0
-94.98158 -186.68793 467.0
-91.70636 -186.68793 467.0
-88.620476 -187.08769 468.0
-85.33824 -187.08769 468.0
-82.23134 -187.48744 469.0
-78.94209 -187.48744 469.0
-75.65283 -187.48744 469.0
-72.36357 -187.48744 469.0
-69.221596 -187.8872 470.0
-66.20587 -188.68674 472.0
-62.89558 -188.68674 472.0
-59.58529 -188.68674 472.0
-196.14891 -177.75995 437.0
-192.64226 -177.35318 436.0
-189.58443 -177.35318 436.0
-186.52661 -177.35318 436.0
-183.048 -176.9464 435.0
-180.82478 -177.75995 437.0
-178.16673 -178.16673 438.0
-175.49463 -178.5735 439.0
-173.20128 -179.38705 441.0
-170.87987 -180.20059 443.0
-168.53041 -181.01414 445.0
-166.5246 -182.23447 448.0
-164.4767 -183.45477 451.0
-162.02905 -184.26833 453.0
-159.20267 -184.6751 454.0
-156.36227 -185.08188 455.0
-153.1712 -185.08188 455.0
-149.98013 -185.08188 455.0
-147.11168 -185.48865 456.0
-143.9136 -185.48865 456.0
-140.40694 -185.08188 455.0
-137.51746 -185.48865 456.0
-134.31937 -185.48865 456.0
-131.40883 -185.89543 457.0
-128.20374 -185.89543 457.0
-124.99865 -185.89543 457.0
-121.79356 -185.89543 457.0
-118.58845 -185.89543 457.0
-115.63584 -186.30219 458.0
-112.669205 -186.70897 459.0
-109.68854 -187.11574 460.0
-106.92529 -187.92928 462.0
-103.90954 -188.33606 463.0
-100.66237 -188.33606 463.0
-97.6256 -188.74284 464.0
-94.57481 -189.1496 465.0
-91.50998 -189.55638 466.0
-88.431114 -189.96315 467.0
-85.15589 -189.96315 467.0
-82.056 -190.36993 468.0
-78.773766 -190.36993 468.0
-75.49153 -190.36993 468.0
-72.36357 -190.77669 469.0
-69.221596 -191.18347 470.0
-66.065605 -191.59024 471.0
-195.2512 -179.99721 435.0
-192.64226 -180.411 436.0
-190.01926 -180.82478 437.0
-186.52661 -180.411 436.0
-183.46881 -180.411 436.0
-180.82478 -180.82478 437.0
-178.16673 -181.23857 438.0
-175.89441 -182.06615 440.0
-173.20128 -182.47992 441.0
-171.26561 -183.72128 444.0
-168.90913 -184.54886 446.0
-166.89632 -185.7902 449.0
-164.4767 -186.61778 451.0
-162.02905 -187.44536 453.0
-159.20267 -187.85915 454.0
-156.36227 -188.27295 455.0
-153.1712 -188.27295 455.0
-149.6505 -187.85915 454.0
-146.78908 -188.27295 455.0
-143.28241 -187.85915 454.0
-140.09836 -187.85915 454.0
-137.21588 -188.27295 455.0
-134.0248 -188.27295 455.0
-131.12128 -188.68672 456.0
-127.9232 -188.68672 456.0
-124.72513 -188.68672 456.0
-121.79356 -189.10051 457.0
-118.58845 -189.10051 457.0
-115.38336 -189.10051 457.0
-112.42374 -189.5143 458.0
-109.45009 -189.92809 459.0
-106.69385 -190.75566 461.0
-103.68512 -191.16945 462.0
-100.66237 -191.58324 463.0
-97.6256 -191.99701 464.0
-94.57481 -192.4108 465.0
-91.50998 -192.82458 466.0
-88.431114 -193.23837 467.0
-85.15589 -193.23837 467.0

