ply
format ascii 1.0
comment made by @arthurmuchir
element vertex 573
property float x
property float y
property float z
end_header
-256.24615 -148.35303 641.0
-254.1071 -149.74167 647.0
-251.49814 -150.89886 652.0
-247.68289 -151.36176 654.0
-259.11462 -151.89479 637.0
-258.24496 -154.04088 646.0
-254.1071 -154.27931 647.0
-250.72667 -154.99469 650.0
-247.30417 -155.71004 653.0
-264.8235 -157.09868 640.0
-261.1485 -157.58961 642.0
-258.24496 -158.57149 646.0
-254.1071 -158.81694 647.0
-250.34094 -159.30788 649.0
-246.92545 -160.04428 652.0
-318.0757 -148.71072 589.0
-314.47787 -148.9632 590.0
-311.392 -149.46817 592.0
-273.80054 -161.5872 640.0
-268.04962 -160.82976 637.0
-264.8235 -161.5872 640.0
-260.74173 -161.83968 641.0
-257.0457 -162.34465 643.0
-253.71434 -163.10208 646.0
-250.34094 -163.85953 649.0
-246.16801 -164.11201 650.0
-316.99567 -152.32259 587.0
-313.41183 -152.58208 588.0
-310.866 -153.36057 591.0
-307.75912 -153.87955 593.0
-275.6801 -164.51878 634.0
-271.23364 -164.51878 634.0
-267.208 -164.77827 635.0
-263.58212 -165.29726 637.0
-260.33493 -166.07574 640.0
-256.64594 -166.59471 642.0
-253.71434 -167.63269 646.0
-249.95522 -168.15169 648.0
-240.00328 -174.12003 671.0
-235.29735 -174.12003 671.0
-315.91562 -155.9064 585.0
-312.34583 -156.17291 586.0
-309.28802 -156.70592 588.0
-306.20215 -157.23892 590.0
-278.80106 -168.16571 631.0
-274.37564 -168.16571 631.0
-270.37802 -168.4322 632.0
-267.208 -169.23174 635.0
-263.16833 -169.49823 636.0
-259.5214 -170.03125 638.0
-256.64594 -171.09729 642.0
-253.71434 -172.1633 646.0
-243.25046 -177.75993 667.0
-238.93025 -178.02644 668.0
-235.29735 -178.82597 671.0
-231.62236 -179.62549 674.0
-317.83026 -158.91512 581.0
-314.29553 -159.18863 582.0
-311.2798 -159.73567 584.0
-308.76202 -160.55623 587.0
-305.68317 -161.10327 589.0
-303.6002 -162.19736 593.0
-281.8799 -171.77055 628.0
-277.9174 -172.04407 629.0
-273.9408 -172.3176 630.0
-269.95023 -172.59111 631.0
-266.7872 -173.41167 634.0
-263.16833 -173.95872 636.0
-259.5214 -174.50575 638.0
-250.33394 -180.79672 661.0
-246.06982 -181.07024 662.0
-242.15637 -181.61726 664.0
-238.21487 -182.16432 666.0
-234.94667 -183.25839 670.0
-231.62236 -184.35246 674.0
-316.18912 -162.14825 578.0
-313.21548 -162.70934 580.0
-309.68076 -162.98985 581.0
-307.18402 -163.83145 584.0
-304.6452 -164.67307 587.0
-303.08823 -166.07573 592.0
-283.54907 -174.49173 622.0
-280.53336 -175.33333 625.0
-277.0337 -175.8944 627.0
-273.07114 -176.17493 628.0
-269.5224 -176.736 630.0
-265.94562 -177.29706 632.0
-263.16833 -178.41919 636.0
-253.4268 -184.3104 657.0
-248.81905 -184.3104 657.0
-244.58301 -184.59091 658.0
-241.42699 -185.71306 662.0
-237.49953 -186.27411 664.0
-234.24535 -187.39626 668.0
-230.93506 -188.51839 672.0
-315.6421 -165.91441 577.0
-312.67545 -166.4895 579.0
-309.14774 -166.77705 580.0
-306.65802 -167.6397 583.0
-304.6452 -168.78989 587.0
-301.5523 -169.36497 589.0
-287.4485 -178.56647 621.0
-283.54907 -178.854 622.0
-279.63562 -179.14157 623.0
-276.15002 -179.71666 625.0
-273.07114 -180.5793 628.0
-269.95023 -181.44193 631.0
-265.94562 -181.72948 632.0
-263.16833 -182.87967 636.0
-256.07083 -187.48041 652.0
-251.88388 -187.76796 653.0
-248.06161 -188.34305 655.0
-244.21129 -188.91814 657.0
-241.42699 -190.35588 662.0
-237.49953 -190.93097 664.0
-233.89467 -191.79361 667.0
-315.09506 -169.66656 576.0
-311.5954 -169.96114 577.0
-308.0817 -170.25569 578.0
-306.13202 -171.43393 582.0
-304.1262 -172.61218 586.0
-301.5523 -173.49585 589.0
-295.20526 -182.33264 619.0
-291.33386 -182.62721 620.0
-286.9856 -182.62721 620.0
-283.0932 -182.92178 621.0
-279.63562 -183.5109 623.0
-276.15002 -184.1 625.0
-273.07114 -184.98369 628.0
-269.95023 -185.86737 631.0
-267.208 -187.04561 635.0
-263.18237 -190.58034 647.0
-258.6447 -190.58034 647.0
-254.8926 -191.16945 649.0
-251.49814 -192.05313 652.0
-247.68289 -192.64224 654.0
-244.58301 -193.8205 658.0
-241.0623 -194.70418 661.0
-237.49953 -195.58784 664.0
-314.548 -173.40468 575.0
-311.05536 -173.70625 576.0
-308.0817 -174.30939 578.0
-306.13202 -175.51569 582.0
-304.1262 -176.72197 586.0
-301.0403 -177.32513 588.0
-295.20526 -186.6739 619.0
-290.3941 -186.37233 618.0
-286.05984 -186.37233 618.0
-282.63733 -186.97546 620.0
-279.1868 -187.57863 622.0
-275.7082 -188.18176 624.0
-273.07114 -189.38806 628.0
-269.95023 -190.29277 631.0
-270.1536 -193.61008 642.0
-266.06482 -193.91167 643.0
-261.96204 -194.21324 644.0
-258.24496 -194.81638 646.0
-254.49985 -195.41953 648.0
-250.72667 -196.02267 650.0
-247.30417 -196.9274 653.0
-244.58301 -198.43526 658.0
-313.45392 -176.82016 573.0
-311.05536 -177.74593 576.0
-307.54868 -178.0545 577.0
-305.60602 -179.28886 581.0
-303.6072 -180.5232 585.0
-297.1269 -189.47221 614.0
-292.8207 -189.47221 614.0
-289.45428 -190.08939 616.0
-286.05984 -190.70656 618.0
-282.63733 -191.32375 620.0
-279.1868 -191.9409 622.0
-275.7082 -192.55809 624.0
-273.07114 -193.79243 628.0
-272.5171 -196.5697 637.0
-269.73282 -197.80406 641.0
-265.65106 -198.11264 642.0
-261.1485 -198.11264 642.0
-257.0457 -198.42123 643.0
-254.1071 -199.65558 647.0
-250.72667 -200.58134 650.0
-247.30417 -201.5071 653.0
-313.45392 -180.8388 573.0
-311.05536 -181.7856 576.0
-307.54868 -182.1012 577.0
-305.60602 -183.3636 581.0
-303.6072 -184.626 585.0
-304.24542 -192.8316 611.0
-300.4512 -193.1472 612.0
-296.64297 -193.4628 613.0
-292.34378 -193.4628 613.0
-288.9844 -194.094 615.0
-285.1341 -194.4096 616.0
-282.63733 -195.672 620.0
-279.63562 -196.6188 623.0
-276.15002 -197.25 625.0
-276.11493 -200.406 635.0
-272.5171 -201.0372 637.0
-268.04962 -201.0372 637.0
-263.9959 -201.3528 638.0
-260.74173 -202.2996 641.0
-257.44543 -203.2464 644.0
-254.49985 -204.5088 648.0
-250.72667 -205.14 650.0
-229.21678 -210.5052 667.0
-225.54883 -211.452 670.0
-313.45392 -184.85744 573.0
-311.05536 -185.82527 576.0
-309.14774 -187.11572 580.0
-306.13202 -187.76096 582.0
-311.91098 -193.89061 601.0
-308.20798 -194.21323 602.0
-306.00574 -195.50368 606.0
-303.2495 -196.47151 609.0
-298.97842 -196.47151 609.0
-295.19122 -196.79413 610.0
-291.86688 -197.43935 612.0
-288.5145 -198.0846 614.0
-284.6712 -198.4072 615.0
-282.1815 -199.69765 619.0
-279.63562 -200.98811 623.0
-278.80106 -203.56902 631.0
-274.81046 -203.89162 632.0
-271.66147 -204.85945 635.0
-267.6288 -205.18207 636.0
-263.58212 -205.5047 637.0
-260.74173 -206.79514 641.0
-258.24496 -208.40822 646.0
-254.49985 -209.05344 648.0
-241.42699 -213.57002 662.0
-236.78416 -213.57002 662.0
-233.544 -214.86047 666.0
-228.87314 -214.86047 666.0
-225.54883 -216.15091 670.0
-221.50912 -216.79616 672.0
-314.00098 -189.20569 574.0
-311.5954 -190.19458 577.0
-309.14774 -191.18346 580.0
-315.6 -197.77599 600.0
-311.91098 -198.10562 601.0
-308.7199 -198.76488 603.0
-304.99585 -199.0945 604.0
-300.7598 -199.0945 604.0
-297.5056 -199.75375 606.0
-294.2234 -200.41301 608.0
-290.9131 -201.07227 610.0
-288.04462 -202.06114 613.0
-284.6712 -202.72038 615.0
-282.63733 -204.36853 620.0
-280.53336 -206.01666 625.0
-278.35922 -207.6648 630.0
-273.9408 -207.6648 630.0
-270.37802 -208.32405 632.0
-267.208 -209.31293 635.0
-263.58212 -209.97218 637.0
-260.74173 -211.29068 641.0
-258.24496 -212.93883 646.0
-244.21129 -216.5647 657.0
-240.3329 -217.22398 659.0
-236.42648 -217.88322 661.0
-232.14134 -218.21284 662.0
-228.18582 -218.87209 664.0
-224.87553 -220.19061 668.0
-221.1795 -221.17949 671.0
-314.548 -193.568 575.0
-312.13544 -194.57791 578.0
-308.0817 -194.57791 578.0
-313.496 -200.63742 596.0
-310.87302 -201.64735 599.0
-307.18402 -201.984 600.0
-303.98593 -202.65727 602.0
-300.7598 -203.33055 604.0
-297.5056 -204.00381 606.0
-293.73947 -204.34047 607.0
-290.4362 -205.01375 609.0
-287.57474 -206.02367 612.0
-284.2083 -206.69695 614.0
-283.0932 -209.05342 621.0
-280.0845 -210.06335 624.0
-277.47556 -211.40991 628.0
-273.50598 -211.74655 629.0
-269.95023 -212.41982 631.0
-267.208 -213.76639 635.0
-263.58212 -214.43967 637.0
-260.74173 -215.78624 641.0
-251.49814 -219.48927 652.0
-246.92545 -219.48927 652.0
-243.09618 -220.16254 654.0
-239.60352 -221.17247 657.0
-235.35345 -221.50911 658.0
-231.79068 -222.51903 661.0
-228.18582 -223.52895 664.0
-224.87553 -224.8755 668.0
-314.548 -197.60068 575.0
-312.13544 -198.63164 578.0
-313.94485 -202.41182 589.0
-311.392 -203.4428 592.0
-308.7971 -204.47374 595.0
-306.16006 -205.5047 598.0
-302.976 -206.19202 600.0
-299.7639 -206.87932 602.0
-296.52374 -207.56662 604.0
-293.25552 -208.25394 606.0
-290.4362 -209.2849 609.0
-287.10483 -209.9722 611.0
-284.2083 -211.00317 614.0
-282.1815 -212.72142 619.0
-279.1868 -213.7524 622.0
-276.15002 -214.78334 625.0
-273.50598 -216.15796 629.0
-269.95023 -216.84528 631.0
-266.7872 -217.87624 634.0
-263.16833 -218.56354 636.0
-260.74173 -220.28181 641.0
-258.24496 -222.00008 646.0
-254.1071 -222.34372 647.0
-250.34094 -223.03104 649.0
-246.16801 -223.37468 650.0
-242.72447 -224.40565 653.0
-238.87413 -225.09294 655.0
-235.35345 -226.1239 658.0
-232.14134 -227.49852 662.0
-227.84216 -227.84216 663.0
-224.5389 -229.21678 667.0
-314.548 -201.63335 575.0
-312.67545 -203.03601 579.0
-312.8788 -205.84134 587.0
-309.28802 -206.19202 588.0
-306.72113 -207.24402 591.0
-305.6481 -209.348 597.0
-301.9661 -209.69867 598.0
-299.26596 -210.75067 601.0
-296.0328 -211.45201 603.0
-292.2877 -211.80267 604.0
-289.95926 -213.20534 608.0
-287.10483 -214.25734 611.0
-284.2083 -215.30934 614.0
-281.72562 -216.712 618.0
-279.1868 -218.11469 622.0
-275.7082 -218.816 624.0
-273.07114 -220.21869 628.0
-269.95023 -221.27069 631.0
-267.208 -222.67334 635.0
-264.8235 -224.42668 640.0
-260.74173 -224.77734 641.0
-257.44543 -225.82935 644.0
-253.71434 -226.53069 646.0
-249.56947 -226.88135 647.0
-246.16801 -227.93335 650.0
-242.72447 -228.98534 653.0
-238.87413 -229.68669 655.0
-235.71112 -231.08934 659.0
-232.14134 -232.14134 662.0
-314.548 -205.666 575.0
-312.13544 -206.73904 578.0
-311.2798 -208.88513 584.0
-308.76202 -209.95816 587.0
-306.20215 -211.0312 590.0
-304.62415 -212.8196 595.0
-301.9661 -213.89265 598.0
-299.26596 -214.96568 601.0
-296.0328 -215.68103 603.0
-292.2877 -216.03873 604.0
-289.95926 -217.46944 608.0
-286.63495 -218.1848 610.0
-283.74545 -219.25783 613.0
-281.72562 -221.04623 618.0
-277.84024 -221.40393 619.0
-275.7082 -223.19234 624.0
-273.07114 -224.62303 628.0
-270.37802 -226.05377 632.0
-268.04962 -227.84216 637.0
-263.9959 -228.19983 638.0
-260.33493 -228.9152 640.0
-256.64594 -229.63057 642.0
-252.92885 -230.34593 644.0
-249.56947 -231.41896 647.0
-245.78929 -232.13432 649.0
-242.35277 -233.20737 652.0
-239.60352 -234.99576 657.0
-314.548 -209.69867 575.0
-312.13544 -210.79276 578.0
-310.74677 -212.61621 583.0
-308.23602 -213.7103 586.0
-305.68317 -214.80438 589.0
-304.11218 -216.62784 594.0
-302.47104 -218.45132 599.0
-298.768 -218.816 600.0
-296.0328 -219.91006 603.0
-293.25552 -221.00417 606.0
-289.95926 -221.73355 608.0
-286.16504 -222.09824 609.0
-283.28256 -223.19234 612.0
-280.358 -224.2864 615.0
-277.84024 -225.74518 619.0
-274.8245 -226.83925 622.0
-273.9408 -229.7568 630.0
-270.37802 -230.48619 632.0
-267.208 -231.58026 635.0
-263.16833 -231.94496 636.0
-260.33493 -233.40375 640.0
-256.64594 -234.13313 642.0
-252.92885 -234.86252 644.0
-249.56947 -235.95659 647.0
-246.16801 -237.05066 650.0
-314.548 -213.73132 575.0
-313.21548 -215.58986 580.0
-310.21375 -216.33327 582.0
-308.76202 -218.19182 587.0
-306.20215 -219.30695 590.0
-303.6002 -220.42204 593.0
-301.9661 -222.2806 598.0
-298.768 -223.024 600.0
-296.0328 -224.13913 603.0
-292.2877 -224.51082 604.0
-289.95926 -225.99765 608.0
-286.16504 -226.36937 609.0
-282.81967 -227.11278 611.0
-280.358 -228.5996 615.0
-277.39136 -229.71474 618.0
-274.8245 -231.20155 622.0
-273.07114 -233.4318 628.0
-269.95023 -234.54689 631.0
-265.94562 -234.91861 632.0
-262.34076 -235.66202 634.0
-259.11462 -236.77716 637.0
-256.64594 -238.63567 642.0
-253.71434 -240.1225 646.0
-313.45392 -217.00656 573.0
-313.21548 -219.6576 580.0
-309.68076 -220.0363 581.0
-309.28802 -222.68736 588.0
-306.72113 -223.8235 591.0
-304.11218 -224.95967 594.0
-301.46112 -226.09584 597.0
-298.768 -227.232 600.0
-296.0328 -228.36816 603.0
-292.2877 -228.74687 604.0
-289.48236 -229.88304 607.0
-286.16504 -230.64047 609.0
-283.28256 -231.77664 612.0
-279.90213 -232.53407 614.0
-277.39136 -234.04897 618.0
-274.38266 -235.1851 621.0
-271.76666 -236.7 625.0
-269.5224 -238.5936 630.0
-265.94562 -239.35103 632.0
-262.34076 -240.10847 634.0
-259.11462 -241.24463 637.0
-255.8464 -242.3808 640.0
-313.45392 -221.0252 573.0
-312.67545 -223.3396 579.0
-310.21375 -224.4968 582.0
-308.76202 -226.42546 587.0
-306.20215 -227.58266 590.0
-305.13614 -229.89706 596.0
-301.46112 -230.2828 597.0
-298.768 -231.44 600.0
-295.54187 -232.21146 602.0
-292.2877 -232.98291 604.0
-289.48236 -234.14012 607.0
-286.16504 -234.9116 609.0
-282.81967 -235.68306 611.0
-279.90213 -236.84026 614.0
-277.39136 -238.3832 618.0
-273.9408 -239.15466 620.0
-271.76666 -241.08331 625.0
-269.0946 -242.62625 629.0
-265.94562 -243.78346 632.0
-262.34076 -244.55492 634.0
-314.00098 -225.43657 574.0
-312.67545 -227.4003 579.0
-310.74677 -228.9713 583.0
-308.76202 -230.54228 587.0
-306.72113 -232.11327 591.0
-305.13614 -234.07701 596.0
-301.46112 -234.46974 597.0
-298.768 -235.64798 600.0
-295.05093 -236.04073 601.0
-293.25552 -238.00447 606.0
-289.48236 -238.39722 607.0
-286.16504 -239.18271 609.0
-282.81967 -239.96822 611.0
-279.4463 -240.7537 613.0
-277.39136 -242.71744 618.0
-274.38266 -243.89568 621.0
-272.63632 -246.25214 627.0
-268.66678 -246.6449 628.0
-265.5248 -247.82314 631.0
-314.00098 -229.46227 574.0
-312.67545 -231.46106 579.0
-311.2798 -233.45985 584.0
-309.28802 -235.0589 588.0
-306.72113 -236.25816 591.0
-304.62415 -237.8572 595.0
-301.46112 -238.65672 597.0
-298.27005 -239.45627 599.0
-294.56 -239.856 600.0
-292.2877 -241.45506 604.0
-289.00546 -242.25456 606.0
-286.16504 -243.45386 609.0
-282.3568 -243.8536 610.0
-278.99042 -244.65314 612.0
-276.49368 -246.25217 616.0
-274.38266 -248.25096 621.0
-271.33185 -249.45026 624.0
-268.23895 -250.64954 627.0
-249.78688 -254.24736 636.0
-245.32642 -254.24736 636.0
-240.86594 -254.24736 636.0
-237.89227 -255.8464 640.0
-233.76843 -256.24615 641.0
-229.63057 -256.64594 642.0
-225.47867 -257.0457 643.0
-314.548 -233.89468 575.0
-313.21548 -235.92854 580.0
-311.2798 -237.55562 584.0
-308.76202 -238.77596 587.0
-306.20215 -239.99628 590.0
-303.6002 -241.21658 593.0
-300.95615 -242.43692 596.0
-297.7721 -243.25047 598.0
-294.56 -244.064 600.0
-291.80377 -245.28433 603.0
-288.05164 -245.6911 604.0
-285.22525 -246.9114 607.0
-282.3568 -248.13174 610.0
-278.53455 -248.53851 611.0
-275.59598 -249.75882 614.0
-273.499 -251.79271 619.0
-270.02737 -252.60626 621.0
-266.95554 -253.82657 624.0
-263.0 -254.23334 625.0
-259.44424 -255.04689 627.0
-256.2672 -256.2672 630.0
-252.64832 -257.08075 632.0
-249.00139 -257.89432 634.0
-244.94067 -258.3011 635.0
-241.24466 -259.11462 637.0
-237.14886 -259.5214 638.0
-233.40375 -260.33493 640.0
-229.63057 -261.1485 642.0
-225.47867 -261.55527 643.0
-315.09506 -238.34113 576.0
-313.21548 -239.99626 580.0
-311.2798 -241.65141 584.0
-308.23602 -242.47899 586.0
-305.68317 -243.72035 589.0
-303.08823 -244.96172 592.0
-299.94623 -245.78929 594.0
-297.27414 -247.03064 597.0
-294.0691 -247.85822 599.0
-290.83594 -248.68579 601.0
-287.57474 -249.51337 603.0
-284.75537 -250.75473 606.0
-281.43106 -251.5823 608.0
-278.07867 -252.40985 610.0
-275.1471 -253.65123 613.0
-272.17346 -254.8926 616.0
-269.59253 -256.54773 620.0
-266.5277 -257.7891 623.0
-263.0 -258.61667 625.0
-259.44424 -259.44424 627.0
-255.45367 -259.85803 628.0
-252.24857 -261.0994 631.0
-248.2159 -261.51318 632.0
-244.55495 -262.34076 634.0
-240.86594 -263.16833 636.0
-236.77716 -263.58212 637.0
-233.40375 -264.8235 640.0
-229.27287 -265.23724 641.0
-225.128 -265.65103 642.0
-222.00008 -267.30618 646.0

