ply
format ascii 1.0
comment made by @arthurmuchir
element vertex 910
property float x
property float y
property float z
end_header
-139.17961 -111.34368 567.0
-135.67996 -111.736435 569.0
-155.08585 -115.32025 567.0
-151.37581 -115.523636 568.0
-146.61374 -114.91347 565.0
-142.6512 -114.91347 565.0
-138.68867 -114.91347 565.0
-135.20305 -115.32025 567.0
-131.45793 -115.523636 568.0
-163.61406 -119.7176 569.0
-159.62347 -119.7176 569.0
-155.35936 -119.5072 568.0
-151.37581 -119.5072 568.0
-147.39221 -119.5072 568.0
-140.37889 -116.9824 556.0
-136.9704 -117.4032 558.0
-134.01079 -118.2448 562.0
-130.99504 -119.0864 566.0
-127.69878 -119.7176 569.0
-163.61406 -123.70819 569.0
-159.62347 -123.70819 569.0
-155.35936 -123.49076 568.0
-147.1117 -120.01215 552.0
-142.98083 -119.79474 551.0
-139.62144 -120.22956 553.0
-136.23401 -120.6644 555.0
-133.05698 -121.316635 558.0
-130.30074 -122.40371 563.0
-127.69878 -123.70819 569.0
-163.77536 -124.78123 556.0
-159.58841 -124.556786 555.0
-156.81815 -125.45449 559.0
-153.1712 -125.67893 560.0
-145.51265 -122.53695 546.0
-141.94286 -122.761375 547.0
-138.61151 -123.210236 549.0
-135.25214 -123.65908 551.0
-132.10316 -124.33237 554.0
-129.83784 -125.90335 561.0
-126.80106 -126.801056 565.0
-122.83854 -126.801056 565.0
-115.523636 -127.47434 568.0
-178.40518 -127.986305 553.0
-174.8424 -128.21776 554.0
-171.5742 -128.68063 556.0
-167.07164 -128.21776 554.0
-163.18623 -128.21776 554.0
-159.30086 -128.21776 554.0
-155.41547 -128.21776 554.0
-151.8036 -128.44919 555.0
-143.9136 -124.977585 540.0
-140.1264 -124.977585 540.0
-137.85408 -126.366234 546.0
-134.7612 -127.060555 549.0
-132.10316 -128.21776 554.0
-129.14354 -129.14351 558.0
-126.127785 -130.06927 562.0
-122.40371 -130.3007 563.0
-118.87601 -130.76358 565.0
-114.91347 -130.76358 565.0
-111.736435 -131.68935 569.0
-184.47874 -130.67244 548.0
-180.6354 -130.67244 548.0
-177.43735 -131.14934 550.0
-173.8956 -131.3878 551.0
-170.03127 -131.3878 551.0
-166.16692 -131.3878 551.0
-162.59712 -131.62625 552.0
-158.72577 -131.62625 552.0
-155.13493 -131.8647 553.0
-151.53009 -132.10315 554.0
-143.11409 -128.04945 537.0
-139.6074 -128.2879 538.0
-137.09663 -129.48018 543.0
-134.02481 -130.19553 546.0
-131.8647 -131.8647 553.0
-128.44922 -132.34161 555.0
-124.332375 -132.10315 554.0
-121.31664 -133.05698 558.0
-118.0344 -133.77232 561.0
-114.71009 -134.4877 564.0
-111.147316 -134.9646 566.0
-187.63474 -134.02481 546.0
-183.46881 -133.77934 545.0
-179.97617 -134.02481 546.0
-176.14688 -134.02481 546.0
-172.9488 -134.51575 548.0
-169.72267 -135.00667 550.0
-165.86534 -135.00667 550.0
-162.30257 -135.25214 551.0
-158.4382 -135.25214 551.0
-155.41547 -135.98854 554.0
-145.78616 -130.83374 533.0
-142.31458 -131.07921 534.0
-138.82893 -131.32468 535.0
-136.3392 -132.55202 540.0
-134.02481 -134.02481 546.0
-130.67244 -134.51575 548.0
-127.292015 -135.00667 550.0
-123.659096 -135.25214 551.0
-120.44698 -135.98854 554.0
-117.403206 -136.97041 558.0
-114.303314 -137.95227 562.0
-110.95094 -138.68867 565.0
-107.36712 -139.17961 567.0
-190.76268 -137.34914 544.0
-186.26012 -136.84416 542.0
-182.4589 -136.84416 542.0
-178.98727 -137.09665 543.0
-176.14688 -137.85408 546.0
-172.63321 -138.10657 547.0
-168.79692 -138.10657 547.0
-165.2622 -138.35905 548.0
-162.00801 -138.864 550.0
-158.4382 -139.11649 551.0
-148.68268 -133.8144 530.0
-144.9656 -133.8144 530.0
-141.24855 -133.8144 530.0
-138.56944 -134.82433 534.0
-136.08672 -136.08673 539.0
-133.53387 -137.34914 544.0
-130.19553 -137.85408 546.0
-126.597694 -138.10657 547.0
-123.210236 -138.61153 549.0
-120.01216 -139.36897 552.0
-116.56161 -139.87393 554.0
-114.09992 -141.64128 561.0
-110.75457 -142.39873 564.0
-193.1472 -140.1264 540.0
-189.36 -140.1264 540.0
-185.5728 -140.1264 540.0
-181.78561 -140.1264 540.0
-177.99841 -140.1264 540.0
-175.17905 -140.90488 543.0
-172.31761 -141.68336 546.0
-168.48834 -141.68336 546.0
-165.2622 -142.20235 548.0
-161.71342 -142.46185 549.0
-158.72577 -143.24031 552.0
-148.40215 -137.27197 529.0
-144.6921 -137.27197 529.0
-140.98204 -137.27197 529.0
-138.56944 -138.56944 534.0
-136.08672 -139.86691 539.0
-133.04294 -140.64539 542.0
-129.48016 -140.90488 543.0
-126.13481 -141.42387 545.0
-122.536964 -141.68336 546.0
-119.79475 -142.98082 551.0
-116.351204 -143.49982 553.0
-196.20502 -143.38058 538.0
-192.43185 -143.38058 538.0
-188.30801 -143.11409 537.0
-184.54185 -143.11409 537.0
-181.11234 -143.38058 538.0
-177.99841 -143.9136 540.0
-174.21121 -143.9136 540.0
-171.3708 -144.71312 543.0
-168.48834 -145.51263 546.0
-165.56378 -146.31215 549.0
-162.30257 -146.84518 551.0
-159.30086 -147.6447 554.0
-155.41547 -147.6447 554.0
-147.42729 -143.6471 539.0
-142.84758 -142.84758 536.0
-139.34792 -143.11409 537.0
-136.3392 -143.9136 540.0
-132.552 -143.9136 540.0
-129.24171 -144.44661 542.0
-125.903366 -144.97963 544.0
-122.536964 -145.51263 546.0
-119.57734 -146.57867 550.0
-116.56161 -147.6447 554.0
-113.89654 -149.24373 560.0
-110.361824 -149.77673 562.0
-195.47563 -146.60672 536.0
-191.35881 -146.3332 535.0
-187.25601 -146.05968 534.0
-183.5109 -146.05968 534.0
-180.1024 -146.3332 535.0
-177.00952 -146.88023 537.0
-173.88858 -147.42728 539.0
-171.0552 -148.24783 542.0
-168.17973 -149.0684 545.0
-165.56378 -150.16248 549.0
-162.89168 -151.25655 553.0
-159.58841 -151.8036 555.0
-158.50134 -154.5388 565.0
-147.7008 -147.7008 540.0
-143.64711 -147.42728 539.0
-139.86691 -147.42728 539.0
-136.08672 -147.42728 539.0
-132.552 -147.7008 540.0
-129.00327 -147.97432 541.0
-125.903366 -148.79488 544.0
-122.76138 -149.61543 547.0
-119.79475 -150.70952 551.0
-116.56161 -151.53008 554.0
-113.48977 -152.62415 558.0
-110.16545 -153.44472 561.0
-106.42032 -153.71823 562.0
-199.23479 -150.36586 536.0
-194.74623 -149.8048 534.0
-191.00111 -149.8048 534.0
-186.90533 -149.52426 533.0
-183.5109 -149.8048 534.0
-179.76578 -149.8048 534.0
-176.35027 -150.08533 535.0
-173.56598 -150.92693 538.0
-170.73961 -151.76852 541.0
-167.87115 -152.61012 544.0
-164.96063 -153.45174 547.0
-162.30257 -154.57385 551.0
-161.31367 -157.37918 561.0
-158.50134 -158.50133 565.0
-146.88025 -150.6464 537.0
-143.3806 -150.92693 538.0
-139.6074 -150.92693 538.0
-136.08672 -151.20746 539.0
-132.552 -151.48799 540.0
-129.24171 -152.04906 542.0
-125.903366 -152.61012 544.0
-122.76138 -153.45174 547.0
-119.57734 -154.29333 550.0
-116.351204 -155.13493 553.0
-112.8796 -155.69598 555.0
-109.57633 -156.53758 558.0
-106.23096 -157.37918 561.0
-202.2365 -153.54991 534.0
-198.49138 -153.54991 534.0
-194.38155 -153.26236 533.0
-189.92807 -152.68727 531.0
-186.20401 -152.68727 531.0
-182.82358 -152.97481 532.0
-179.42914 -153.26236 533.0
-176.02063 -153.54991 534.0
-173.24336 -154.41255 537.0
-170.42401 -155.27519 540.0
-167.56256 -156.13782 543.0
-164.65904 -157.00047 546.0
-161.12431 -157.28801 547.0
-161.60123 -161.60121 562.0
-158.50134 -162.46385 565.0
-146.88025 -154.41255 537.0
-143.11409 -154.41255 537.0
-139.6074 -154.70009 538.0
-136.3392 -155.27519 540.0
-132.552 -155.27519 540.0
-129.24171 -155.85028 542.0
-125.903366 -156.42537 544.0
-122.536964 -157.00047 546.0
-118.925095 -157.28801 547.0
-116.1408 -158.72575 552.0
-112.67622 -159.30084 554.0
-109.57633 -160.45102 558.0
-106.23096 -161.31367 561.0
-201.10034 -156.41136 531.0
-197.37625 -156.41136 531.0
-193.28748 -156.1168 530.0
-189.21272 -155.82225 529.0
-185.50267 -155.82225 529.0
-182.13628 -156.1168 530.0
-179.0925 -156.70593 532.0
-176.02063 -157.29504 534.0
-173.24336 -158.17873 537.0
-170.42401 -159.06241 540.0
-167.25398 -159.65154 542.0
-164.65904 -160.82976 546.0
-164.95361 -164.95361 560.0
-161.60123 -165.54272 562.0
-158.50134 -166.4264 565.0
-146.88025 -158.17873 537.0
-143.3806 -158.4733 538.0
-139.6074 -158.4733 538.0
-136.08672 -158.76785 539.0
-132.552 -159.06241 540.0
-128.7648 -159.06241 540.0
-125.671936 -159.94609 543.0
-122.31253 -160.53522 545.0
-118.925095 -161.12433 547.0
-115.930405 -162.30257 551.0
-112.8796 -163.48082 555.0
-109.37996 -164.06993 557.0
-200.7216 -159.83388 530.0
-196.63284 -159.53229 529.0
-192.92276 -159.53229 529.0
-189.21272 -159.53229 529.0
-185.50267 -159.53229 529.0
-182.13628 -159.83388 530.0
-178.4192 -159.83388 530.0
-175.69101 -160.73859 533.0
-172.92075 -161.64333 536.0
-170.10841 -162.54803 539.0
-167.56256 -163.75433 543.0
-164.65904 -164.65904 546.0
-164.95361 -168.88107 560.0
-161.31367 -169.18265 561.0
-158.22081 -170.08737 564.0
-146.0597 -161.04016 534.0
-142.31458 -161.04016 534.0
-139.08842 -161.64333 536.0
-135.32928 -161.64333 536.0
-132.30653 -162.54803 539.0
-128.7648 -162.84961 540.0
-125.44049 -163.45276 542.0
-121.86368 -163.75433 543.0
-118.70768 -164.65904 546.0
-115.088806 -164.96062 547.0
-111.4559 -165.26219 548.0
-108.00535 -165.86534 550.0
-105.66287 -168.27792 558.0
-102.29648 -169.18265 561.0
-205.59587 -164.4767 533.0
-200.3429 -163.24236 529.0
-196.26114 -162.93376 528.0
-192.19339 -162.62518 527.0
-188.85506 -162.93376 528.0
-185.15201 -162.93376 528.0
-181.79263 -163.24236 529.0
-178.4192 -163.55095 530.0
-175.69101 -164.4767 533.0
-172.59814 -165.09387 535.0
-170.10841 -166.32822 539.0
-167.56256 -167.56256 543.0
-164.35747 -168.17975 545.0
-164.36447 -172.19136 558.0
-161.31367 -173.11711 561.0
-157.65974 -173.4257 562.0
-145.23914 -163.85951 531.0
-142.04807 -164.4767 533.0
-138.56944 -164.78528 534.0
-134.82433 -164.78528 534.0
-131.8156 -165.71104 537.0
-128.52635 -166.32822 539.0
-124.74617 -166.32822 539.0
-120.74154 -166.01964 538.0
-116.968376 -166.01964 538.0
-113.616005 -166.6368 540.0
-110.032196 -166.94539 541.0
-107.023476 -168.17975 545.0
-104.90544 -170.95702 554.0
-209.33398 -168.2148 533.0
-204.43867 -167.268 530.0
-199.96416 -166.6368 528.0
-195.51772 -166.0056 526.0
-191.82869 -166.0056 526.0
-188.13968 -166.0056 526.0
-184.80135 -166.3212 527.0
-181.79263 -166.9524 529.0
-178.4192 -167.268 530.0
-175.36139 -167.8992 532.0
-172.59814 -168.846 535.0
-170.42401 -170.424 540.0
-167.56256 -171.3708 543.0
-167.97636 -175.7892 557.0
-164.06992 -175.7892 557.0
-160.73859 -176.4204 559.0
-157.09868 -176.73601 560.0
-144.6921 -166.9524 529.0
-141.24855 -167.268 530.0
-138.30994 -168.2148 533.0
-134.82433 -168.5304 534.0
-131.32468 -168.846 535.0
-127.33409 -168.5304 534.0
-123.58897 -168.5304 534.0
-119.84384 -168.5304 534.0
-116.09872 -168.5304 534.0
-112.9848 -169.4772 537.0
-109.828804 -170.424 540.0
-106.8271 -171.6864 544.0
-103.390564 -172.3176 546.0
-213.07208 -171.95291 533.0
-208.54848 -171.30768 531.0
-204.05295 -170.66245 529.0
-199.58545 -170.01723 527.0
-195.51772 -169.69461 526.0
-191.82869 -169.69461 526.0
-188.13968 -169.69461 526.0
-184.80135 -170.01723 527.0
-181.44896 -170.33983 528.0
-178.08258 -170.66245 529.0
-175.36139 -171.6303 532.0
-173.24336 -173.24335 537.0
-170.42401 -174.2112 540.0
-168.17973 -175.82426 545.0
-166.16692 -177.75993 551.0
-163.4808 -179.0504 555.0
-160.1635 -179.69562 557.0
-156.53761 -180.01823 558.0
-144.6921 -170.66245 529.0
-141.24855 -170.98506 530.0
-138.30994 -171.95291 533.0
-134.57184 -171.95291 533.0
-130.83374 -171.95291 533.0
-127.095634 -171.95291 533.0
-123.35754 -171.95291 533.0
-119.61941 -171.95291 533.0
-116.09872 -172.27551 534.0
-112.77441 -172.92075 536.0
-109.828804 -174.2112 540.0
-106.63074 -175.17903 543.0
-103.201195 -175.82426 545.0
-250.85292 -173.38362 526.0
-247.1639 -173.38362 526.0
-238.41827 -172.39474 523.0
-221.78967 -176.67989 536.0
-218.03052 -176.67989 536.0
-212.27257 -175.03175 531.0
-208.15575 -174.70213 530.0
-204.05295 -174.37251 529.0
-199.58545 -173.71324 527.0
-195.51772 -173.38362 526.0
-191.82869 -173.38362 526.0
-188.13968 -173.38362 526.0
-184.45067 -173.38362 526.0
-181.10532 -173.71324 527.0
-178.08258 -174.37251 529.0
-175.69101 -175.69101 533.0
-173.24336 -177.00952 537.0
-170.42401 -177.99838 540.0
-168.48834 -179.97615 546.0
-165.56378 -180.96504 549.0
-162.59712 -181.95392 552.0
-159.30086 -182.61316 554.0
-155.696 -182.9428 555.0
-144.6921 -174.37251 529.0
-141.51505 -175.03175 531.0
-137.79095 -175.03175 531.0
-133.56192 -174.37251 529.0
-130.09734 -174.70213 530.0
-126.61873 -175.03175 531.0
-122.894646 -175.03175 531.0
-119.61941 -175.69101 533.0
-116.09872 -176.02063 534.0
-112.77441 -176.67989 536.0
-109.828804 -177.99838 540.0
-106.63074 -178.98727 543.0
-248.46838 -175.38943 521.0
-246.69402 -176.736 525.0
-242.54912 -176.39935 524.0
-238.41827 -176.0627 523.0
-234.30145 -175.72607 522.0
-232.19743 -179.76575 534.0
-229.30794 -180.43904 536.0
-225.54881 -180.43904 536.0
-220.9621 -179.76575 534.0
-216.40343 -179.09247 532.0
-211.8728 -178.41919 530.0
-208.15575 -178.41919 530.0
-204.05295 -178.08255 529.0
-199.58545 -177.40927 527.0
-195.51772 -177.07263 526.0
-191.82869 -177.07263 526.0
-188.13968 -177.07263 526.0
-184.45067 -177.07263 526.0
-181.44896 -177.74591 528.0
-178.4192 -178.41919 530.0
-175.69101 -179.42911 533.0
-173.24336 -180.77567 537.0
-170.73961 -182.12224 541.0
-168.48834 -183.80544 546.0
-165.56378 -184.81535 549.0
-162.00801 -185.152 550.0
-158.4382 -185.48863 551.0
-155.13493 -186.16191 553.0
-151.53009 -186.49855 554.0
-147.64471 -186.49855 554.0
-143.7593 -186.49855 554.0
-133.56192 -178.08255 529.0
-129.85187 -178.08255 529.0
-126.61873 -178.75583 531.0
-122.894646 -178.75583 531.0
-119.61941 -179.42911 533.0
-116.31614 -180.10239 535.0
-112.77441 -180.43904 536.0
-263.08417 -179.0434 521.0
-258.43433 -178.3561 519.0
-254.30348 -178.01244 518.0
-250.67056 -178.01244 518.0
-247.03767 -178.01244 518.0
-243.40474 -178.01244 518.0
-240.23473 -178.3561 519.0
-237.9624 -179.38705 522.0
-235.19916 -180.07436 524.0
-235.50073 -183.16724 533.0
-231.76262 -183.16724 533.0
-228.02452 -183.16724 533.0
-224.2864 -183.16724 533.0
-219.72073 -182.47993 531.0
-215.18312 -181.79262 529.0
-211.47304 -181.79262 529.0
-207.76299 -181.79262 529.0
-203.28148 -181.10532 527.0
-199.20674 -180.76166 526.0
-195.51772 -180.76166 526.0
-191.82869 -180.76166 526.0
-188.13968 -180.76166 526.0
-184.80135 -181.10532 527.0
-181.79263 -181.79262 529.0
-178.4192 -182.13629 530.0
-175.69101 -183.16724 533.0
-173.88858 -185.22916 539.0
-171.0552 -186.26012 542.0
-168.17973 -187.29108 545.0
-164.65904 -187.63474 546.0
-161.41887 -188.32204 548.0
-157.86311 -188.6657 549.0
-154.29333 -189.00934 550.0
-150.70953 -189.353 551.0
-147.1117 -189.69666 552.0
-143.4998 -190.04031 553.0
-139.87392 -190.38396 554.0
-136.72495 -191.41492 557.0
-132.81851 -191.41492 557.0
-129.60641 -192.44588 560.0
-126.127785 -193.1332 562.0
-121.96888 -192.78954 561.0
-266.22614 -182.34666 520.0
-261.56927 -181.64534 518.0
-257.43845 -181.29468 517.0
-253.81255 -181.29468 517.0
-249.70274 -180.94402 516.0
-245.60695 -180.59334 515.0
-241.99507 -180.59334 515.0
-239.30896 -181.29468 517.0
-237.05067 -182.34666 520.0
-237.89227 -185.85335 530.0
-235.0589 -186.55467 532.0
-231.32779 -186.55467 532.0
-227.16888 -186.20401 531.0
-223.024 -185.85335 530.0
-218.89316 -185.50267 529.0
-214.77634 -185.15201 528.0
-211.07327 -185.15201 528.0
-207.37025 -185.15201 528.0
-202.89574 -184.45067 526.0
-199.20674 -184.45067 526.0
-195.14601 -184.1 525.0
-191.464 -184.1 525.0
-188.13968 -184.45067 526.0
-184.80135 -184.80135 527.0
-181.79263 -185.50267 529.0
-178.75584 -186.20401 531.0
-176.02063 -187.25601 534.0
-173.88858 -189.00934 539.0
-171.0552 -190.06134 542.0
-167.87115 -190.76266 544.0
-164.05591 -190.76266 544.0
-160.82976 -191.46402 546.0
-157.28802 -191.81467 547.0
-153.45174 -191.81467 547.0
-150.16249 -192.516 549.0
-146.57867 -192.86667 550.0
-143.24033 -193.56801 552.0
-139.87392 -194.26935 554.0
-136.72495 -195.32133 557.0
-133.05698 -195.67201 558.0
-129.83784 -196.72401 561.0
-278.65378 -184.56288 516.0
-275.03488 -184.56288 516.0
-270.89 -184.2052 515.0
-267.27814 -184.2052 515.0
-263.6663 -184.2052 515.0
-260.0544 -184.2052 515.0
-256.44254 -184.2052 515.0
-250.86694 -182.77449 511.0
-246.79921 -182.4168 510.0
-243.69933 -182.77449 511.0
-240.1155 -182.77449 511.0
-236.53168 -182.77449 511.0
-232.94788 -182.77449 511.0
-237.44344 -189.21274 529.0
-233.73338 -189.21274 529.0
-230.45815 -189.5704 530.0
-226.31325 -189.21274 529.0
-222.1824 -188.85504 528.0
-218.47937 -188.85504 528.0
-214.36957 -188.49736 527.0
-210.27376 -188.13968 526.0
-206.58475 -188.13968 526.0
-202.89574 -188.13968 526.0
-198.828 -187.782 525.0
-195.14601 -187.782 525.0
-191.464 -187.782 525.0
-188.13968 -188.13968 526.0
-185.15201 -188.85504 528.0
-181.79263 -189.21274 529.0
-179.0925 -190.28577 532.0
-176.02063 -191.00113 534.0
-173.56598 -192.43185 538.0
-170.42401 -193.1472 540.0
-166.9454 -193.50488 541.0
-163.75433 -194.22025 543.0
-160.24063 -194.57793 544.0
-156.42538 -194.57793 544.0
-153.1712 -195.29329 546.0
-149.34193 -195.29329 546.0
-146.04567 -196.00865 548.0
-142.98083 -197.08168 551.0
-139.87392 -198.15472 554.0
-136.72495 -199.22777 557.0
-133.05698 -199.58545 558.0
-281.1786 -187.45238 514.0
-276.49365 -186.72299 512.0
-273.96884 -187.45238 514.0
-269.838 -187.08768 513.0
-266.24017 -187.08768 513.0
-262.64233 -187.08768 513.0
-259.54944 -187.45238 514.0
-252.45897 -184.89952 507.0
-248.90321 -184.89952 507.0
-245.34746 -184.89952 507.0
-241.7917 -184.89952 507.0
-238.23592 -184.89952 507.0
-235.60593 -185.6289 509.0
-232.492 -185.9936 510.0
-236.54572 -192.19339 527.0
-232.8497 -192.19339 527.0
-229.15366 -192.19339 527.0
-225.45763 -192.19339 527.0
-221.76161 -192.19339 527.0
-217.65181 -191.82869 526.0
-213.96278 -191.82869 526.0
-209.87401 -191.464 525.0
-206.192 -191.464 525.0
-202.51001 -191.464 525.0
-198.828 -191.464 525.0
-195.14601 -191.464 525.0
-191.464 -191.464 525.0
-188.13968 -191.82869 526.0
-185.15201 -192.55809 528.0
-181.79263 -192.92278 529.0
-179.42914 -194.38156 533.0
-176.02063 -194.74625 534.0
-173.56598 -196.20502 538.0
-170.42401 -196.9344 540.0
-166.63681 -196.9344 540.0
-162.84961 -196.9344 540.0
-159.65152 -197.66379 542.0
-156.13785 -198.02849 543.0
-152.61014 -198.39317 544.0
-149.0684 -198.75787 545.0
-145.77916 -199.48726 547.0
-142.98083 -200.94603 551.0
-139.87392 -202.0401 554.0
-136.72495 -203.13419 557.0
-278.4434 -189.1987 509.0
-275.4136 -189.5704 510.0
-271.83682 -189.5704 510.0
-267.208 -188.827 508.0
-263.12625 -188.45528 507.0
-257.5226 -186.96844 503.0
-253.99487 -186.96844 503.0
-250.46718 -186.96844 503.0
-247.4304 -187.34015 504.0
-244.37961 -187.71187 505.0
-240.83788 -187.71187 505.0
-237.76604 -188.08357 506.0
-234.68016 -188.45528 507.0
-232.03615 -189.1987 509.0
-227.56865 -188.45528 507.0
-232.40785 -195.5177 526.0
-228.71883 -195.5177 526.0
-224.602 -195.146 525.0
-220.92001 -195.146 525.0
-217.238 -195.146 525.0
-213.14925 -194.77429 524.0
-209.47423 -194.77429 524.0
-205.79926 -194.77429 524.0
-202.12427 -194.77429 524.0
-198.828 -195.146 525.0
-195.14601 -195.146 525.0
-191.464 -195.146 525.0
-188.49736 -195.8894 527.0
-185.50267 -196.63283 529.0
-181.79263 -196.63283 529.0
-179.0925 -197.74794 532.0
-176.02063 -198.49135 534.0
-172.92075 -199.23477 536.0
-169.4772 -199.60648 537.0
-166.32823 -200.3499 539.0
-162.84961 -200.7216 540.0
-159.06241 -200.7216 540.0
-155.8503 -201.46501 542.0
-152.61014 -202.20842 544.0
-149.0684 -202.58012 545.0
-146.04567 -203.69525 548.0
-142.98083 -204.81038 551.0
-277.3493 -192.01103 507.0
-273.79352 -192.01103 507.0
-267.5727 -190.11743 502.0
-264.052 -190.11743 502.0
-260.5313 -190.11743 502.0
-257.01062 -190.11743 502.0
-253.48993 -190.11743 502.0
-249.96924 -190.11743 502.0
-246.93947 -190.49615 503.0
-243.89569 -190.87486 504.0
-240.36098 -190.87486 504.0
-236.82623 -190.87486 504.0
-234.21729 -191.63232 506.0
-231.58028 -192.38976 508.0
-228.46635 -192.76846 509.0
-231.52419 -198.44926 524.0
-227.84917 -198.44926 524.0
-224.1742 -198.44926 524.0
-220.07841 -198.07056 523.0
-216.41043 -198.07056 523.0
-212.74248 -198.07056 523.0
-209.47423 -198.44926 524.0
-205.79926 -198.44926 524.0
-202.51001 -198.828 525.0
-198.828 -198.828 525.0
-195.14601 -198.828 525.0
-192.19339 -199.58543 527.0
-188.85506 -199.96416 528.0
-185.50267 -200.34286 529.0
-182.13628 -200.7216 530.0
-179.0925 -201.47903 532.0
-176.02063 -202.23647 534.0
-172.59814 -202.6152 535.0
-169.1616 -202.99391 536.0
-165.71104 -203.37263 537.0
-162.54805 -204.13007 539.0
-159.06241 -204.5088 540.0
-155.56274 -204.88751 541.0
-152.3296 -205.64496 543.0
-149.0684 -206.4024 545.0
-146.57867 -208.296 550.0
-271.8789 -191.70946 497.0
-269.4733 -192.48093 499.0
-265.97366 -192.48093 499.0
-262.474 -192.48093 499.0
-258.97437 -192.48093 499.0
-256.49866 -193.25238 501.0
-252.98497 -193.25238 501.0
-249.47128 -193.25238 501.0
-245.95761 -193.25238 501.0
-241.96 -192.86665 500.0
-237.97646 -192.48093 499.0
-234.94667 -192.86665 500.0
-231.90288 -193.25238 501.0
-229.30095 -194.02386 503.0
-226.22209 -194.40959 504.0
-230.19865 -200.96706 521.0
-226.5447 -200.96706 521.0
-222.89075 -200.96706 521.0
-219.65761 -201.35278 522.0
-215.99666 -201.35278 522.0
-212.74248 -201.73853 523.0
-209.47423 -202.12425 524.0
-206.192 -202.51 525.0
-202.89574 -202.89574 526.0
-199.20674 -202.89574 526.0
-195.88943 -203.28146 527.0
-192.55807 -203.66719 528.0
-189.21272 -204.05293 529.0
-185.85333 -204.43866 530.0
-182.13628 -204.43866 530.0
-179.0925 -205.21013 532.0
-175.69101 -205.59586 533.0
-172.27551 -205.98158 534.0
-168.84601 -206.36732 535.0
-165.40247 -206.75305 536.0
-162.24648 -207.52454 538.0
-159.06241 -208.29599 540.0
-155.56274 -208.68173 541.0
-152.3296 -209.45319 543.0
-270.78482 -194.40959 495.0
-267.85324 -194.80234 496.0
-264.90762 -195.19508 497.0
-261.422 -195.19508 497.0
-258.45535 -195.58783 498.0
-255.47472 -195.98058 499.0
-251.97504 -195.98058 499.0
-246.98155 -194.80234 496.0
-244.4848 -195.58783 498.0
-240.99217 -195.58783 498.0
-237.49954 -195.58783 498.0
-234.00688 -195.58783 498.0
-230.97713 -195.98058 499.0
-227.93333 -196.37332 500.0
-225.32439 -197.15881 502.0
-229.31499 -203.83551 519.0
-226.10988 -204.22826 520.0
-222.89075 -204.621 521.0
-219.65761 -205.01375 522.0
-216.41043 -205.4065 523.0
-213.14925 -205.79924 524.0
-209.87401 -206.19199 525.0
-206.58475 -206.58475 526.0
-203.28148 -206.97748 527.0
-199.96416 -207.37022 528.0
-196.63284 -207.76297 529.0
-192.92276 -207.76297 529.0
-189.21272 -207.76297 529.0
-185.85333 -208.15572 530.0
-182.13628 -208.15572 530.0
-179.0925 -208.94121 532.0
-175.69101 -209.33397 533.0
-172.27551 -209.7267 534.0
-168.84601 -210.11946 535.0
-165.71104 -210.90495 537.0
-162.54805 -211.69044 539.0
-159.06241 -212.08319 540.0
-156.13785 -213.26143 543.0
-269.69073 -197.0817 493.0
-266.77316 -197.48145 494.0
-264.3746 -198.28096 496.0
-259.84402 -197.48145 494.0
-256.37943 -197.48145 494.0
-252.91486 -197.48145 494.0
-249.45024 -197.48145 494.0
-245.98566 -197.48145 494.0
-243.50294 -198.28096 496.0
-240.02434 -198.28096 496.0
-236.0688 -197.88121 495.0
-233.0671 -198.28096 496.0
-230.05136 -198.68073 497.0
-227.0216 -199.08049 498.0
-223.97783 -199.48026 499.0
-228.87314 -207.0757 518.0
-226.10988 -207.87521 520.0
-222.89075 -208.27496 521.0
-220.07841 -209.0745 523.0
-216.82423 -209.47424 524.0
-213.55602 -209.87401 525.0
-210.27376 -210.27376 526.0
-206.9775 -210.67352 527.0
-204.05295 -211.47305 529.0
-200.3429 -211.47305 529.0
-197.00455 -211.87282 530.0
-193.28748 -211.87282 530.0
-189.5704 -211.87282 530.0
-185.85333 -211.87282 530.0
-182.47993 -212.27257 531.0
-179.0925 -212.67233 532.0
-175.69101 -213.0721 533.0
-172.27551 -213.47185 534.0
-169.4772 -214.67113 537.0
-166.32823 -215.47066 539.0
-162.84961 -215.8704 540.0
-268.59665 -199.72572 491.0
-265.6931 -200.13248 492.0
-261.70953 -199.72572 491.0
-257.74002 -199.31894 490.0
-254.82248 -199.72572 491.0
-251.8909 -200.13248 492.0
-248.44032 -200.13248 492.0
-245.48772 -200.53926 493.0
-242.52107 -200.94603 494.0
-239.05649 -200.94603 494.0
-235.59192 -200.94603 494.0
-232.1273 -200.94603 494.0
-229.58849 -201.75958 496.0
-226.10988 -201.75958 496.0
-223.08012 -202.16635 497.0
-229.7568 -211.52214 520.0
-226.5447 -211.92892 521.0
-223.74638 -212.74246 523.0
-220.92001 -213.55602 525.0
-217.65181 -213.96278 526.0
-213.96278 -213.96278 526.0
-211.07327 -214.77634 528.0
-207.76299 -215.18309 529.0
-204.05295 -215.18309 529.0
-200.7216 -215.58989 530.0
-197.00455 -215.58989 530.0
-193.65216 -215.99663 531.0
-190.28577 -216.40341 532.0
-186.55467 -216.40341 532.0
-182.82358 -216.40341 532.0
-179.42914 -216.8102 533.0
-176.02063 -217.21696 534.0
-172.92075 -218.03052 536.0
-170.10841 -219.25082 539.0
-166.63681 -219.6576 540.0
-265.86145 -201.10031 486.0
-262.99298 -201.5141 487.0
-259.57748 -201.5141 487.0
-256.68802 -201.92789 488.0
-253.7845 -202.34169 489.0
-250.86694 -202.75548 490.0
-247.93536 -203.16927 491.0
-244.98976 -203.58305 492.0
-242.03014 -203.99684 493.0
-238.57257 -203.99684 493.0
-235.115 -203.99684 493.0
-231.65741 -203.99684 493.0
-228.66272 -204.41061 494.0
-225.654 -204.8244 495.0
-222.63127 -205.23819 496.0
-230.19865 -215.58284 521.0
-226.5447 -215.58284 521.0
-223.74638 -216.41043 523.0
-220.92001 -217.238 525.0
-217.65181 -217.6518 526.0
-214.36957 -218.06558 527.0
-211.07327 -218.47937 528.0
-207.76299 -218.89316 529.0
-204.43867 -219.30695 530.0
-201.10034 -219.72073 531.0
-197.74796 -220.13452 532.0
-194.38155 -220.54831 533.0
-190.64345 -220.54831 533.0
-186.90533 -220.54831 533.0
-183.5109 -220.9621 534.0
-179.76578 -220.9621 534.0
-176.02063 -220.9621 534.0
-173.24336 -222.20343 537.0

