ply
format ascii 1.0
comment made by @arthurmuchir
element vertex 1183
property float x
property float y
property float z
end_header
-174.54083 -110.68441 607.0
-170.56427 -110.86676 608.0
-166.5737 -111.0491 609.0
-162.56908 -111.23146 610.0
-158.29094 -111.23146 610.0
-240.00328 -106.23097 561.0
-235.64801 -106.04161 560.0
-181.54716 -113.99473 602.0
-177.61967 -114.1841 603.0
-173.67819 -114.37345 604.0
-170.0032 -114.752174 606.0
-165.75314 -114.752174 606.0
-161.76956 -114.94153 607.0
-157.77194 -115.1309 608.0
-153.76031 -115.32025 609.0
-242.19846 -109.37995 557.0
-238.29204 -109.37995 557.0
-234.3856 -109.37995 557.0
-230.89296 -109.57633 558.0
-226.57277 -109.37995 557.0
-193.56801 -117.82401 600.0
-189.36 -117.82401 600.0
-185.15201 -117.82401 600.0
-181.24559 -118.02038 601.0
-177.03056 -118.02038 601.0
-173.1031 -118.21675 602.0
-168.60054 -118.02038 601.0
-164.93256 -118.41313 603.0
-160.97005 -118.609505 604.0
-157.51245 -119.19862 607.0
-240.89397 -112.67621 554.0
-237.00859 -112.67621 554.0
-233.12321 -112.67621 554.0
-230.0654 -113.082985 556.0
-226.57277 -113.28638 557.0
-192.60016 -121.421844 597.0
-188.7288 -121.62524 598.0
-184.53484 -121.62524 598.0
-180.64244 -121.82861 599.0
-176.73601 -122.032 600.0
-172.528 -122.032 600.0
-168.32 -122.032 600.0
-164.38554 -122.23539 601.0
-160.43703 -122.438774 602.0
-240.45915 -116.351204 553.0
-236.15297 -116.1408 552.0
-232.70241 -116.351204 553.0
-229.23782 -116.5616 554.0
-225.7592 -116.772 555.0
-196.12787 -125.188 595.0
-191.95494 -125.188 595.0
-188.09761 -125.3984 596.0
-183.91766 -125.3984 596.0
-179.73772 -125.3984 596.0
-175.85233 -125.6088 597.0
-171.66536 -125.6088 597.0
-167.75894 -125.8192 598.0
-164.112 -126.24 600.0
-160.17052 -126.4504 601.0
-158.80992 -132.3416 629.0
-154.39854 -132.3416 629.0
-149.98715 -132.3416 629.0
-239.5895 -119.79474 551.0
-235.29735 -119.57733 550.0
-231.44 -119.57733 550.0
-227.99648 -119.79474 551.0
-224.94568 -120.22956 553.0
-221.46704 -120.44699 554.0
-199.62753 -128.9261 593.0
-195.46861 -128.9261 593.0
-191.30972 -128.9261 593.0
-187.4664 -129.14352 594.0
-182.9919 -128.9261 593.0
-179.13458 -129.14352 594.0
-175.2632 -129.36093 595.0
-171.3778 -129.57834 596.0
-167.47841 -129.79575 597.0
-161.66434 -135.4485 623.0
-157.29504 -135.4485 623.0
-153.41667 -135.88333 625.0
-149.51025 -136.31815 627.0
-145.34433 -136.53557 628.0
-141.16437 -136.75299 629.0
-136.9704 -136.9704 630.0
-241.6865 -122.761375 547.0
-238.28502 -122.98581 548.0
-234.86952 -123.210236 549.0
-231.01921 -123.210236 549.0
-227.58267 -123.43466 550.0
-224.13213 -123.65908 551.0
-221.06728 -124.10794 553.0
-203.44278 -132.86058 592.0
-198.95425 -132.63615 591.0
-195.13899 -132.86058 592.0
-190.98709 -132.86058 592.0
-186.8352 -132.86058 592.0
-182.68332 -132.86058 592.0
-178.83301 -133.085 593.0
-174.96863 -133.30943 594.0
-171.3778 -133.75829 596.0
-165.23415 -139.14453 620.0
-161.14536 -139.36896 621.0
-157.04256 -139.59337 622.0
-152.92574 -139.8178 623.0
-148.79489 -140.04224 624.0
-144.41858 -140.04224 624.0
-140.26666 -140.26666 625.0
-136.31816 -140.71552 627.0
-132.13121 -140.93994 628.0
-241.24466 -126.366234 546.0
-237.41536 -126.366234 546.0
-234.0139 -126.59767 547.0
-230.17761 -126.59767 547.0
-226.7551 -126.8291 548.0
-223.31859 -127.060555 549.0
-220.26776 -127.52344 551.0
-205.84134 -135.85527 587.0
-202.06816 -136.0867 588.0
-198.28098 -136.31815 589.0
-194.47974 -136.54959 590.0
-190.66447 -136.78102 591.0
-186.5196 -136.78102 591.0
-182.68332 -137.01247 592.0
-178.83301 -137.24391 593.0
-174.37952 -137.01247 592.0
-168.48834 -142.56702 616.0
-164.70114 -143.0299 618.0
-160.62636 -143.26135 619.0
-156.28513 -143.26135 619.0
-152.18935 -143.49278 620.0
-148.07953 -143.72423 621.0
-143.95569 -143.95567 622.0
-139.81781 -144.1871 623.0
-135.88333 -144.65 625.0
-131.9208 -145.11287 627.0
-241.24466 -130.19553 546.0
-237.41536 -130.19553 546.0
-233.58607 -130.19553 546.0
-229.7568 -130.19553 546.0
-225.92754 -130.19553 546.0
-222.9118 -130.67244 548.0
-219.86801 -131.14934 550.0
-209.60048 -139.73367 586.0
-205.49068 -139.73367 586.0
-201.72452 -139.97212 587.0
-197.6077 -139.97212 587.0
-193.82048 -140.21057 588.0
-189.69666 -140.21057 588.0
-185.5728 -140.21057 588.0
-182.06615 -140.68748 590.0
-178.53143 -141.16438 592.0
-174.08496 -140.92593 591.0
-176.26611 -146.1719 613.0
-172.24747 -146.41037 614.0
-167.66776 -146.1719 613.0
-163.90161 -146.64882 615.0
-159.8479 -146.88727 616.0
-155.52768 -146.88727 616.0
-151.20747 -146.88727 616.0
-147.60263 -147.60263 619.0
-143.26137 -147.60263 619.0
-139.14453 -147.84108 620.0
-135.4485 -148.55644 623.0
-131.9208 -149.51025 627.0
-248.90321 -134.02481 546.0
-245.07394 -134.02481 546.0
-241.24466 -134.02481 546.0
-237.41536 -134.02481 546.0
-233.15828 -133.77934 545.0
-229.33601 -133.77934 545.0
-225.92754 -134.02481 546.0
-222.50504 -134.27026 547.0
-219.46823 -134.76122 549.0
-213.34561 -143.598 585.0
-208.88512 -143.35254 584.0
-205.14001 -143.598 585.0
-201.0372 -143.598 585.0
-196.9344 -143.598 585.0
-192.8316 -143.598 585.0
-188.7288 -143.598 585.0
-185.2572 -144.08894 587.0
-181.44896 -144.33441 588.0
-177.62671 -144.57986 589.0
-179.68161 -149.73466 610.0
-175.40347 -149.73466 610.0
-171.12534 -149.73466 610.0
-167.39426 -150.22562 612.0
-163.1021 -150.22562 612.0
-159.06941 -150.47107 613.0
-154.77025 -150.47107 613.0
-150.71654 -150.71654 614.0
-146.88727 -151.20747 616.0
-143.02994 -151.69841 618.0
-139.14453 -152.18935 620.0
-135.2311 -152.68027 622.0
-248.90321 -137.85408 546.0
-245.07394 -137.85408 546.0
-241.24466 -137.85408 546.0
-236.98055 -137.6016 545.0
-232.73045 -137.34914 544.0
-228.9152 -137.34914 544.0
-225.51375 -137.6016 545.0
-222.50504 -138.10657 547.0
-219.06848 -138.35905 548.0
-215.61792 -138.61153 549.0
-224.11107 -146.69089 581.0
-220.03633 -146.69089 581.0
-216.705 -147.19585 583.0
-212.9809 -147.44833 584.0
-208.52745 -147.19585 583.0
-204.78934 -147.44833 584.0
-200.69356 -147.44833 584.0
-196.59778 -147.44833 584.0
-192.50197 -147.44833 584.0
-188.40619 -147.44833 584.0
-184.626 -147.7008 585.0
-181.14038 -148.20576 587.0
-183.3566 -153.50784 608.0
-179.09248 -153.50784 608.0
-174.82838 -153.50784 608.0
-170.56427 -153.50784 608.0
-166.5737 -153.76033 609.0
-162.56908 -154.0128 610.0
-158.29094 -154.0128 610.0
-154.26527 -154.26529 611.0
-150.47107 -154.77025 613.0
-146.41035 -155.02274 614.0
-142.56706 -155.52768 616.0
-253.19536 -141.94286 547.0
-248.90321 -141.68336 546.0
-245.07394 -141.68336 546.0
-241.24466 -141.68336 546.0
-236.98055 -141.42387 545.0
-232.73045 -141.16438 544.0
-229.33601 -141.42387 545.0
-225.51375 -141.42387 545.0
-222.09825 -141.68336 546.0
-218.66872 -141.94286 547.0
-227.79308 -150.50613 580.0
-223.72534 -150.50613 580.0
-219.65761 -150.50613 580.0
-215.96158 -150.76562 581.0
-211.88683 -150.76562 581.0
-207.81207 -150.76562 581.0
-204.08801 -151.02512 582.0
-200.00626 -151.02512 582.0
-195.9245 -151.02512 582.0
-192.17235 -151.2846 583.0
-188.40619 -151.54411 584.0
-184.31041 -151.54411 584.0
-186.07776 -156.47449 603.0
-182.15031 -156.73398 604.0
-177.91423 -156.73398 604.0
-173.67819 -156.73398 604.0
-170.0032 -157.25296 606.0
-166.02664 -157.51247 607.0
-162.03607 -157.77196 608.0
-158.03143 -158.03145 609.0
-154.0128 -158.29092 610.0
-150.2256 -158.80992 612.0
-146.17189 -159.06941 613.0
-265.6721 -146.31215 549.0
-261.34488 -146.04564 548.0
-256.56177 -145.51263 546.0
-252.73248 -145.51263 546.0
-248.90321 -145.51263 546.0
-245.07394 -145.51263 546.0
-240.80281 -145.24612 545.0
-236.98055 -145.24612 545.0
-233.15828 -145.24612 545.0
-229.33601 -145.24612 545.0
-225.92754 -145.51263 546.0
-222.09825 -145.51263 546.0
-230.26176 -153.50783 576.0
-226.61484 -153.77434 577.0
-222.95387 -154.04085 578.0
-218.90016 -154.04085 578.0
-215.21819 -154.30736 579.0
-211.52214 -154.57387 580.0
-207.4544 -154.57387 580.0
-203.38667 -154.57387 580.0
-199.6626 -154.84038 581.0
-195.58784 -154.84038 581.0
-191.51309 -154.84038 581.0
-187.76096 -155.10689 582.0
-189.67561 -160.1705 601.0
-185.4606 -160.1705 601.0
-181.24559 -160.1705 601.0
-177.32512 -160.43701 602.0
-173.1031 -160.43701 602.0
-169.44214 -160.97002 604.0
-165.2061 -160.97002 604.0
-161.50305 -161.50304 606.0
-157.51245 -161.76955 607.0
-153.76031 -162.30255 609.0
-149.98013 -162.83557 611.0
-149.51025 -167.09969 627.0
-269.5224 -150.16248 549.0
-264.70425 -149.61543 547.0
-260.39105 -149.34192 546.0
-256.56177 -149.34192 546.0
-252.73248 -149.34192 546.0
-248.90321 -149.34192 546.0
-244.62508 -149.0684 545.0
-240.80281 -149.0684 545.0
-237.41536 -149.34192 546.0
-233.15828 -149.0684 545.0
-229.7568 -149.34192 546.0
-225.92754 -149.34192 546.0
-222.09825 -149.34192 546.0
-229.46223 -157.00047 574.0
-225.43658 -157.00047 574.0
-221.79668 -157.274 575.0
-218.14273 -157.54752 576.0
-214.10306 -157.54752 576.0
-210.42805 -157.82103 577.0
-206.73904 -158.09456 578.0
-203.03601 -158.36807 579.0
-199.31894 -158.6416 580.0
-195.2512 -158.6416 580.0
-191.51309 -158.91512 581.0
-192.60016 -163.29143 597.0
-188.41321 -163.29143 597.0
-184.53484 -163.56496 598.0
-180.64244 -163.83847 599.0
-176.44144 -163.83847 599.0
-172.528 -164.112 600.0
-168.32 -164.112 600.0
-164.65904 -164.65904 602.0
-160.97005 -165.20607 604.0
-157.25296 -165.75311 606.0
-153.25536 -166.02664 607.0
-153.41667 -170.95 625.0
-149.03334 -170.95 625.0
-144.65001 -170.95 625.0
-140.93994 -171.77055 628.0
-136.53557 -171.77055 628.0
-131.9208 -171.49704 627.0
-268.04962 -153.17119 546.0
-264.22034 -153.17119 546.0
-259.43726 -152.61012 544.0
-256.0919 -152.89066 545.0
-252.2696 -152.89066 545.0
-247.99147 -152.61012 544.0
-244.17622 -152.61012 544.0
-240.36098 -152.61012 544.0
-236.98055 -152.89066 545.0
-233.15828 -152.89066 545.0
-229.7568 -153.17119 546.0
-235.03084 -159.34293 568.0
-232.26758 -160.18452 571.0
-228.66272 -160.46506 572.0
-224.6511 -160.46506 572.0
-221.0252 -160.74559 573.0
-217.00656 -160.74559 573.0
-213.73134 -161.30666 575.0
-210.06337 -161.58719 576.0
-206.02368 -161.58719 576.0
-203.03601 -162.42879 579.0
-199.31894 -162.70934 580.0
-195.2512 -162.70934 580.0
-196.12787 -166.91733 595.0
-192.27754 -167.19786 596.0
-188.09761 -167.19786 596.0
-184.22626 -167.4784 597.0
-180.03929 -167.4784 597.0
-176.14688 -167.75893 598.0
-171.95291 -167.75893 598.0
-168.03947 -168.03946 599.0
-164.38554 -168.60052 601.0
-160.97005 -169.44212 604.0
-156.73396 -169.44212 604.0
-157.04256 -174.49173 622.0
-152.92574 -174.77226 623.0
-148.55643 -174.77226 623.0
-144.18713 -174.77226 623.0
-140.26666 -175.33333 625.0
-135.88333 -175.33333 625.0
-131.5 -175.33333 625.0
-126.91329 -175.05278 624.0
-267.06775 -156.42537 544.0
-263.2525 -156.42537 544.0
-259.43726 -156.42537 544.0
-255.62196 -156.42537 544.0
-251.80672 -156.42537 544.0
-247.53561 -156.13782 543.0
-244.17622 -156.42537 544.0
-240.36098 -156.42537 544.0
-237.41536 -157.00047 546.0
-233.58607 -157.00047 546.0
-237.75201 -162.46385 565.0
-234.20328 -162.7514 566.0
-231.04727 -163.32649 568.0
-227.46344 -163.61403 569.0
-223.8656 -163.90158 570.0
-220.25374 -164.18913 571.0
-216.62785 -164.47668 572.0
-212.98795 -164.76422 573.0
-209.69867 -165.33931 575.0
-206.02368 -165.62688 576.0
-202.33467 -165.91441 577.0
-199.31894 -166.77705 580.0
-197.94434 -169.07742 588.0
-195.13899 -170.22762 592.0
-191.30972 -170.51517 593.0
-187.4664 -170.8027 594.0
-183.30049 -170.8027 594.0
-179.43614 -171.09026 595.0
-175.55777 -171.37779 596.0
-171.66536 -171.66536 597.0
-168.03947 -172.24043 599.0
-164.65904 -173.10309 602.0
-163.90161 -176.84119 615.0
-160.36688 -177.70383 618.0
-156.28513 -177.99138 619.0
-152.18935 -178.27892 620.0
-147.84106 -178.27892 620.0
-143.49281 -178.27892 620.0
-139.59338 -178.854 622.0
-135.2311 -178.854 622.0
-131.07921 -179.14157 623.0
-126.7099 -179.14157 623.0
-266.5768 -159.94609 543.0
-262.28467 -159.65154 542.0
-258.96033 -159.94609 543.0
-255.15208 -159.94609 543.0
-251.34386 -159.94609 543.0
-247.53561 -159.94609 543.0
-244.17622 -160.24065 544.0
-241.24466 -160.82976 546.0
-237.85019 -161.12433 547.0
-235.29735 -162.00801 550.0
-232.2816 -162.59714 552.0
-232.54811 -165.54272 562.0
-229.82693 -166.4264 565.0
-225.86441 -166.4264 565.0
-223.08012 -167.31009 568.0
-219.86801 -167.89922 570.0
-216.62785 -168.48833 572.0
-212.61623 -168.48833 572.0
-208.96928 -168.7829 573.0
-205.666 -169.37201 575.0
-201.98401 -169.66656 576.0
-199.31894 -170.84482 580.0
-197.6077 -172.90672 587.0
-194.47974 -173.79042 590.0
-190.98709 -174.37953 592.0
-186.8352 -174.37953 592.0
-182.9919 -174.6741 593.0
-178.83301 -174.6741 593.0
-175.2632 -175.26321 595.0
-171.09027 -175.26321 595.0
-171.40587 -179.97618 611.0
-167.66776 -180.56529 613.0
-163.3686 -180.56529 613.0
-159.3289 -180.85985 614.0
-155.52768 -181.44897 616.0
-151.69841 -182.0381 618.0
-147.36417 -182.0381 618.0
-143.02994 -182.0381 618.0
-138.69568 -182.0381 618.0
-134.57886 -182.33264 619.0
-130.448 -182.62721 620.0
-126.506516 -183.21632 622.0
-265.59494 -163.15118 541.0
-261.3168 -162.84961 540.0
-257.5296 -162.84961 540.0
-254.2123 -163.15118 541.0
-250.88097 -163.45276 542.0
-247.07974 -163.45276 542.0
-244.17622 -164.05591 544.0
-241.24466 -164.65904 546.0
-240.02432 -166.46848 552.0
-236.15297 -166.46848 552.0
-233.12321 -167.07164 554.0
-230.47919 -167.97635 557.0
-228.60663 -169.48422 562.0
-225.86441 -170.38895 565.0
-222.68736 -170.99208 567.0
-219.86801 -171.89682 570.0
-215.8704 -171.89682 570.0
-212.61623 -172.49995 572.0
-208.96928 -172.80153 573.0
-205.30832 -173.1031 574.0
-202.33467 -174.00783 577.0
-199.31894 -174.91254 580.0
-196.59778 -176.11884 584.0
-193.82048 -177.32513 588.0
-190.01926 -177.62671 589.0
-186.5196 -178.22984 591.0
-182.68332 -178.53142 592.0
-178.83301 -178.833 593.0
-175.85233 -180.03928 597.0
-174.54083 -183.05502 607.0
-171.12534 -183.95975 610.0
-167.12074 -184.26132 611.0
-162.83559 -184.26132 611.0
-158.55043 -184.26132 611.0
-154.51776 -184.56288 612.0
-150.47107 -184.86446 613.0
-146.41035 -185.16603 614.0
-142.10417 -185.16603 614.0
-138.24683 -185.76918 616.0
-133.92662 -185.76918 616.0
-130.0272 -186.37233 618.0
-126.30312 -187.27705 621.0
-268.8912 -166.6368 540.0
-265.104 -166.6368 540.0
-261.3168 -166.6368 540.0
-257.5296 -166.6368 540.0
-254.2123 -166.94539 541.0
-250.41808 -166.94539 541.0
-246.62387 -166.94539 541.0
-243.27852 -167.25398 542.0
-240.80281 -168.17975 545.0
-239.15468 -169.72267 550.0
-235.72514 -170.03127 551.0
-232.2816 -170.33984 552.0
-230.0654 -171.57419 556.0
-227.79308 -172.80855 560.0
-224.66512 -173.4257 562.0
-222.29462 -174.66006 566.0
-219.48227 -175.58582 569.0
-215.8704 -175.8944 570.0
-212.61623 -176.51158 572.0
-209.33397 -177.12875 574.0
-205.666 -177.43735 575.0
-202.68533 -178.3631 578.0
-199.31894 -178.98027 580.0
-195.9245 -179.59744 582.0
-192.8316 -180.5232 585.0
-189.37402 -181.14038 587.0
-185.88841 -181.75755 589.0
-184.84343 -184.84341 599.0
-181.84874 -186.07776 603.0
-177.91423 -186.38635 604.0
-173.67819 -186.38635 604.0
-170.28374 -187.3121 607.0
-166.30016 -187.6207 608.0
-162.03607 -187.6207 608.0
-158.03143 -187.92928 609.0
-153.76031 -187.92928 609.0
-149.73466 -188.23787 610.0
-146.17189 -189.16364 613.0
-142.10417 -189.47221 614.0
-137.79797 -189.47221 614.0
-133.92662 -190.08939 616.0
-272.17343 -170.1084 539.0
-268.8912 -170.424 540.0
-264.61307 -170.1084 539.0
-260.8329 -170.1084 539.0
-257.0527 -170.1084 539.0
-253.74242 -170.424 540.0
-249.95522 -170.424 540.0
-246.62387 -170.7396 541.0
-243.27852 -171.0552 542.0
-240.80281 -172.002 545.0
-238.28502 -172.9488 548.0
-235.72514 -173.8956 551.0
-232.2816 -174.2112 552.0
-230.0654 -175.4736 556.0
-227.79308 -176.73601 560.0
-224.66512 -177.3672 562.0
-223.47285 -179.5764 569.0
-219.86801 -179.892 570.0
-216.24915 -180.2076 571.0
-212.98795 -180.8388 573.0
-209.69867 -181.47 575.0
-206.02368 -181.7856 576.0
-202.33467 -182.1012 577.0
-198.9753 -182.7324 579.0
-195.2512 -183.048 580.0
-191.84273 -183.6792 582.0
-189.0514 -184.9416 586.0
-188.41321 -188.4132 597.0
-184.84343 -189.0444 599.0
-181.24559 -189.6756 601.0
-177.03056 -189.6756 601.0
-173.39066 -190.3068 603.0
-169.1616 -190.3068 603.0
-165.75314 -191.2536 606.0
-161.50305 -191.2536 606.0
-157.25296 -191.2536 606.0
-153.50784 -191.8848 608.0
-149.48921 -192.2004 609.0
-145.695 -192.8316 611.0
-141.87274 -193.4628 613.0
-137.79797 -193.7784 614.0
-271.1635 -173.24335 537.0
-267.89532 -173.56596 538.0
-264.12213 -173.56596 538.0
-260.8329 -173.8886 539.0
-256.5758 -173.56596 538.0
-253.2725 -173.8886 539.0
-249.95522 -174.2112 540.0
-246.16801 -174.2112 540.0
-243.72737 -175.17903 543.0
-240.80281 -175.82426 545.0
-238.28502 -176.7921 548.0
-235.72514 -177.75993 551.0
-232.70241 -178.40517 553.0
-230.89296 -180.01823 558.0
-227.79308 -180.66345 560.0
-227.06367 -183.24437 568.0
-223.47285 -183.56699 569.0
-219.86801 -183.8896 570.0
-216.62785 -184.53482 572.0
-212.98795 -184.85744 573.0
-210.06337 -185.82527 576.0
-206.38136 -186.14789 577.0
-202.33467 -186.14789 577.0
-198.63164 -186.4705 578.0
-195.58784 -187.43834 581.0
-191.84273 -187.76096 582.0
-190.34187 -190.34186 590.0
-188.09761 -192.27754 596.0
-184.22626 -192.60016 597.0
-180.34087 -192.92276 598.0
-176.14688 -192.92276 598.0
-172.24045 -193.24539 599.0
-168.32 -193.568 600.0
-164.65904 -194.21323 602.0
-160.97005 -194.85844 604.0
-157.25296 -195.50368 606.0
-153.00287 -195.50368 606.0
-149.24374 -196.14891 608.0
-145.45654 -196.79413 610.0
-141.40985 -197.11674 611.0
-276.4656 -177.99838 540.0
-271.1635 -177.00952 537.0
-267.39737 -177.00952 537.0
-263.6312 -177.00952 537.0
-260.34897 -177.33914 538.0
-256.0989 -177.00952 537.0
-252.80261 -177.33914 538.0
-249.49232 -177.66876 539.0
-246.16801 -177.99838 540.0
-242.82967 -178.32802 541.0
-240.80281 -179.64653 545.0
-238.28502 -180.6354 548.0
-236.15297 -181.95392 552.0
-234.80641 -183.93167 558.0
-231.72054 -184.59093 560.0
-226.97954 -183.93167 558.0
-227.46344 -187.55757 569.0
-223.47285 -187.55757 569.0
-220.25374 -188.21683 571.0
-216.62785 -188.54645 572.0
-212.98795 -188.87607 573.0
-209.69867 -189.53532 575.0
-206.38136 -190.19458 577.0
-202.33467 -190.19458 577.0
-198.63164 -190.52422 578.0
-195.2512 -191.18346 580.0
-191.51309 -191.51308 581.0
-190.66447 -194.80936 591.0
-187.1508 -195.46861 593.0
-183.60907 -196.12785 595.0
-179.73772 -196.45749 596.0
-175.55777 -196.45749 596.0
-171.3778 -196.45749 596.0
-167.47841 -196.78712 597.0
-164.112 -197.77599 600.0
-160.43703 -198.43524 602.0
-156.73396 -199.0945 604.0
-153.00287 -199.75375 606.0
-148.99828 -200.08337 607.0
-275.95364 -181.44896 539.0
-271.1635 -180.77567 537.0
-266.8994 -180.43904 536.0
-263.6312 -180.77567 537.0
-259.86505 -180.77567 537.0
-256.0989 -180.77567 537.0
-251.86284 -180.43904 536.0
-248.56656 -180.77567 537.0
-245.71214 -181.44896 539.0
-242.82967 -182.12224 541.0
-240.36098 -183.13216 544.0
-237.85019 -184.14207 547.0
-237.00859 -186.49855 554.0
-234.80641 -187.84511 558.0
-232.13434 -188.85504 561.0
-228.60663 -189.19167 562.0
-227.46344 -191.54816 569.0
-223.47285 -191.54816 569.0
-219.86801 -191.88478 570.0
-216.62785 -192.55807 572.0
-212.98795 -192.8947 573.0
-209.69867 -193.568 575.0
-206.02368 -193.90463 576.0
-201.98401 -193.90463 576.0
-198.28798 -194.24127 577.0
-195.2512 -195.25119 580.0
-191.51309 -195.58783 581.0
-190.01926 -198.28096 589.0
-186.20401 -198.61758 590.0
-182.9919 -199.6275 593.0
-179.13458 -199.96416 594.0
-174.96863 -199.96416 594.0
-171.09027 -200.30078 595.0
-167.47841 -200.97408 597.0
-163.83849 -201.64735 599.0
-160.17052 -202.32062 601.0
-156.47447 -202.99391 603.0
-280.2528 -185.57281 540.0
-274.9297 -184.54185 537.0
-270.65857 -184.1982 536.0
-266.8994 -184.1982 536.0
-263.1403 -184.1982 536.0
-259.38113 -184.1982 536.0
-255.62198 -184.1982 536.0
-251.86284 -184.1982 536.0
-248.56656 -184.54185 537.0
-246.16801 -185.57281 540.0
-243.27852 -186.26012 542.0
-240.80281 -187.29108 545.0
-237.85019 -187.9784 547.0
-237.4364 -190.72762 555.0
-237.3312 -193.8205 564.0
-234.61705 -194.85144 567.0
-231.04727 -195.19511 568.0
-227.06367 -195.19511 568.0
-223.47285 -195.53877 569.0
-219.86801 -195.88242 570.0
-216.62785 -196.56972 572.0
-212.98795 -196.91338 573.0
-209.33397 -197.25702 574.0
-205.666 -197.60068 575.0
-201.98401 -197.94434 576.0
-198.28798 -198.288 577.0
-194.91458 -198.9753 579.0
-191.51309 -199.6626 581.0
-189.0514 -201.38087 586.0
-185.88841 -202.41182 589.0
-182.37474 -203.09914 591.0
-178.53143 -203.4428 592.0
-174.67407 -203.78644 593.0
-170.80272 -204.1301 594.0
-167.19788 -204.8174 596.0
-163.56496 -205.5047 598.0
-298.68387 -191.46402 546.0
-294.85455 -191.46402 546.0
-289.95926 -190.76266 544.0
-285.092 -190.06134 542.0
-280.2528 -189.36002 540.0
-274.9297 -188.30801 537.0
-270.1536 -187.60667 535.0
-266.8994 -187.95734 536.0
-262.64935 -187.60667 535.0
-259.38113 -187.95734 536.0
-255.62198 -187.95734 536.0
-251.86284 -187.95734 536.0
-248.56656 -188.30801 537.0
-246.16801 -189.36002 540.0
-243.72737 -190.41202 543.0
-241.24466 -191.46402 546.0
-238.28502 -192.16534 548.0
-238.71985 -195.67201 558.0
-236.91042 -197.42534 563.0
-234.20328 -198.47734 566.0
-231.04727 -199.17867 568.0
-227.06367 -199.17867 568.0
-223.47285 -199.52934 569.0
-219.86801 -199.88002 570.0
-216.62785 -200.58134 572.0
-212.61623 -200.58134 572.0
-208.96928 -200.932 573.0
-205.666 -201.63335 575.0
-201.98401 -201.98401 576.0
-198.28798 -202.33467 577.0
-194.91458 -203.03601 579.0
-191.51309 -203.73734 581.0
-188.40619 -204.78934 584.0
-185.2572 -205.84134 587.0
-181.75755 -206.54266 589.0
-177.92827 -206.89334 590.0
-174.08496 -207.24402 591.0
-170.22763 -207.59467 592.0
-167.19788 -208.99734 596.0
-297.58978 -194.57793 544.0
-293.7745 -194.57793 544.0
-289.95926 -194.57793 544.0
-286.144 -194.57793 544.0
-280.77182 -193.50488 541.0
-275.95364 -192.78954 539.0
-270.65857 -191.71648 536.0
-266.4015 -191.3588 535.0
-263.1403 -191.71648 536.0
-259.38113 -191.71648 536.0
-255.62198 -191.71648 536.0
-251.86284 -191.71648 536.0
-248.56656 -192.07416 537.0
-245.71214 -192.78954 539.0
-243.27852 -193.86256 542.0
-241.24466 -195.29329 546.0
-244.37259 -201.01616 562.0
-240.85892 -201.37384 563.0
-237.3312 -201.73154 564.0
-233.78947 -202.0892 565.0
-230.23372 -202.44688 566.0
-226.66393 -202.80457 567.0
-223.08012 -203.16225 568.0
-219.86801 -203.8776 570.0
-216.24915 -204.23528 571.0
-212.61623 -204.59297 572.0
-208.96928 -204.95065 573.0
-205.30832 -205.30833 574.0
-201.98401 -206.02368 576.0
-198.28798 -206.38136 577.0
-194.57794 -206.73904 578.0
-191.18347 -207.4544 580.0
-188.08359 -208.52745 583.0
-184.626 -209.2428 585.0
-181.44896 -210.31584 588.0
-177.62671 -210.67352 589.0
-174.08496 -211.38889 591.0
-170.22763 -211.74657 592.0
-152.24545 -215.68103 603.0
-295.94867 -197.29909 541.0
-292.69446 -197.66379 542.0
-288.36023 -197.29909 541.0
-284.566 -197.29909 541.0
-280.2528 -196.9344 540.0
-275.95364 -196.5697 539.0
-270.65857 -195.47562 536.0
-266.8994 -195.47562 536.0
-262.64935 -195.11093 535.0
-258.89722 -195.11093 535.0
-255.62198 -195.47562 536.0
-252.33272 -195.84032 537.0
-248.56656 -195.84032 537.0
-246.16801 -196.9344 540.0
-242.82967 -197.29909 541.0
-247.4304 -204.22827 560.0
-244.37259 -204.95766 562.0
-240.85892 -205.32236 563.0
-237.3312 -205.68704 564.0
-233.78947 -206.05173 565.0
-229.82693 -206.05173 565.0
-226.26416 -206.41643 566.0
-222.68736 -206.78111 567.0
-219.09654 -207.14581 568.0
-215.8704 -207.8752 570.0
-212.61623 -208.60458 572.0
-208.96928 -208.96928 573.0
-205.30832 -209.33398 574.0
-201.98401 -210.06337 576.0
-197.94434 -210.06337 576.0
-194.24129 -210.42805 577.0
-191.18347 -211.52213 580.0
-188.40619 -212.98091 584.0
-184.626 -213.3456 585.0
-181.44896 -214.43968 588.0
-177.92827 -215.16907 590.0
-174.96863 -216.62784 594.0
-171.3778 -217.35722 596.0
-167.75894 -218.08661 598.0
-164.38554 -219.18071 601.0
-160.17052 -219.18071 601.0
-155.95549 -219.18071 601.0
-152.24545 -219.91006 603.0
-148.0164 -219.91006 603.0
-143.78737 -219.91006 603.0
-294.85458 -200.3499 539.0
-291.07437 -200.3499 539.0
-287.8272 -200.7216 540.0
-284.04 -200.7216 540.0
-280.2528 -200.7216 540.0
-275.44168 -199.9782 538.0
-271.1635 -199.60648 537.0
-266.4015 -198.86307 535.0
-262.64935 -198.86307 535.0
-258.89722 -198.86307 535.0
-255.62198 -199.23477 536.0
-252.33272 -199.60648 537.0
-249.49232 -200.3499 539.0
-246.16801 -200.7216 540.0
-242.38081 -200.7216 540.0
-247.87225 -208.52744 561.0
-243.93776 -208.52744 561.0
-240.00328 -208.52744 561.0
-236.48961 -208.89914 562.0
-233.3757 -209.64255 564.0
-229.82693 -210.01427 565.0
-225.86441 -210.01427 565.0
-222.29462 -210.38597 566.0
-219.09654 -211.1294 568.0
-215.8704 -211.8728 570.0
-212.24452 -212.2445 571.0
-208.60458 -212.61621 572.0
-204.59296 -212.61621 572.0
-200.932 -212.98792 573.0
-197.60068 -213.73132 575.0
-194.24129 -214.47475 577.0
-191.18347 -215.58986 580.0
-188.40619 -217.07668 584.0
-185.2572 -218.19182 587.0
-181.75755 -218.93523 589.0
-178.22984 -219.67863 591.0
-174.37952 -220.05035 592.0
-170.80272 -220.79376 594.0
-167.19788 -221.53717 596.0
-163.56496 -222.2806 598.0
-159.371 -222.2806 598.0
-155.4365 -222.65228 599.0
-151.488 -223.024 600.0
-147.28 -223.024 600.0
-143.31046 -223.39569 601.0
-139.09546 -223.39569 601.0
-135.32927 -224.13913 603.0
-131.31766 -224.51082 604.0
-293.21347 -202.99391 536.0
-289.99432 -203.37263 537.0
-286.7612 -203.75136 538.0
-282.988 -203.75136 538.0
-279.21484 -203.75136 538.0
-275.44168 -203.75136 538.0
-271.1635 -203.37263 537.0
-266.8994 -202.99391 536.0
-263.1403 -202.99391 536.0
-259.38113 -202.99391 536.0
-256.0989 -203.37263 537.0
-253.2725 -204.13007 539.0
-249.95522 -204.5088 540.0
-252.55014 -209.81087 554.0
-250.01132 -210.94704 557.0
-246.98859 -211.70447 559.0
-243.50294 -212.0832 560.0
-239.57547 -212.0832 560.0
-236.0688 -212.46191 561.0
-232.9619 -213.21935 563.0
-229.42018 -213.59807 564.0
-225.86441 -213.9768 565.0
-221.90187 -213.9768 565.0
-218.71082 -214.73424 567.0
-215.11296 -215.11295 568.0
-211.50111 -215.49167 569.0
-208.2399 -216.2491 571.0
-204.59296 -216.62784 572.0
-200.58134 -216.62784 572.0
-197.25703 -217.38527 574.0
-193.90465 -218.1427 576.0
-191.51309 -220.0363 581.0
-188.40619 -221.17247 584.0
-184.9416 -221.9299 586.0
-181.44896 -222.68736 588.0
-177.62671 -223.06607 589.0
-173.7904 -223.4448 590.0
-169.94008 -223.8235 591.0
-166.07574 -224.20224 592.0
-162.19736 -224.58096 593.0
-158.83798 -225.7171 596.0
-154.65804 -225.7171 596.0
-150.73056 -226.09584 597.0
-146.78908 -226.47456 598.0
-142.83356 -226.85327 599.0
-138.63257 -226.85327 599.0
-134.65599 -227.232 600.0
-130.66542 -227.6107 601.0
-292.1194 -205.98158 534.0
-288.37424 -205.98158 534.0
-285.69516 -206.75305 536.0
-282.462 -207.1388 537.0
-278.69586 -207.1388 537.0
-274.9297 -207.1388 537.0
-271.1635 -207.1388 537.0
-266.8994 -206.75305 536.0
-263.1403 -206.75305 536.0
-259.86505 -207.1388 537.0
-256.0989 -207.1388 537.0
-253.74242 -208.29599 540.0
-249.49232 -207.91026 539.0
-252.55014 -213.69626 554.0
-248.66476 -213.69626 554.0
-245.2212 -214.08199 555.0
-242.19846 -214.85345 557.0
-238.71985 -215.23918 558.0
-235.2272 -215.62492 559.0
-232.13434 -216.3964 561.0
-229.01341 -217.16786 563.0
-225.46463 -217.5536 564.0
-221.90187 -217.93932 565.0
-217.93935 -217.93932 565.0
-214.73425 -218.7108 567.0
-211.50111 -219.48225 569.0
-207.5105 -219.48225 569.0
-204.23528 -220.25372 571.0
-200.58134 -220.63947 572.0
-196.91336 -221.0252 573.0
-193.56801 -221.79666 575.0
-191.18347 -223.72531 580.0
-188.08359 -224.88252 583.0
-183.99481 -224.88252 583.0
-180.21463 -225.26826 584.0
-176.42041 -225.654 585.0
-173.20128 -226.8112 588.0
-169.36499 -227.19691 589.0
-165.23415 -227.19691 589.0
-161.10329 -227.19691 589.0
-157.77196 -228.35411 592.0
-153.87955 -228.73985 593.0
-149.97311 -229.1256 594.0
-146.05267 -229.51132 595.0
-141.87975 -229.51132 595.0
-137.93826 -229.89706 596.0
-133.98271 -230.2828 597.0
-130.01317 -230.66852 598.0
-126.0296 -231.05426 599.0
-291.57233 -209.33397 533.0
-288.37424 -209.7267 534.0
-284.62912 -209.7267 534.0
-281.936 -210.51219 536.0
-278.17688 -210.51219 536.0
-274.41772 -210.51219 536.0
-271.1635 -210.90495 537.0
-267.39737 -210.90495 537.0
-263.6312 -210.90495 537.0
-259.86505 -210.90495 537.0
-257.0527 -211.69044 539.0
-254.68219 -212.86868 542.0
-254.58401 -216.01067 550.0
-252.09427 -217.18889 553.0
-248.66476 -217.58165 554.0
-244.77939 -217.58165 554.0
-241.32881 -217.97438 555.0
-238.29204 -218.75989 557.0
-234.80641 -219.15263 558.0
-231.30676 -219.54536 559.0
-228.60663 -220.72362 562.0
-225.46463 -221.50911 564.0
-221.50912 -221.50911 564.0
-217.93935 -221.90186 565.0
-213.9768 -221.90186 565.0
-210.75769 -222.68733 567.0
-207.5105 -223.47284 569.0
-203.87761 -223.86557 570.0
-200.23067 -224.25833 571.0
-196.56972 -224.65108 572.0
-193.56801 -225.82932 575.0
-190.52422 -227.00755 578.0
-187.11574 -227.79306 580.0
-183.6792 -228.57854 582.0
-179.90604 -228.9713 583.0
-176.11885 -229.36404 584.0
-172.31761 -229.75677 585.0
-168.7899 -230.54228 587.0
-164.95361 -230.93503 588.0
-160.82976 -230.93503 588.0
-156.97244 -231.32776 589.0
-153.62006 -232.50603 592.0
-149.46815 -232.50603 592.0
-145.56174 -232.89876 593.0
-141.40283 -232.89876 593.0
-137.47537 -233.2915 594.0
-133.75829 -234.07701 596.0
-129.79576 -234.46974 597.0
-125.6088 -234.46974 597.0
-289.9312 -211.87282 530.0
-287.2942 -212.67233 532.0
-284.09613 -213.0721 533.0
-280.884 -213.47185 534.0
-277.65787 -213.87161 535.0
-273.90573 -213.87161 535.0
-270.65857 -214.27136 536.0
-267.39737 -214.67113 537.0
-263.6312 -214.67113 537.0
-260.34897 -215.07089 538.0
-257.5296 -215.8704 540.0
-255.62196 -217.46947 544.0
-253.19536 -218.66873 547.0
-250.72667 -219.868 550.0
-248.2159 -221.06729 553.0
-244.77939 -221.46706 554.0
-240.89397 -221.46706 554.0
-237.86421 -222.26657 556.0
-234.3856 -222.66634 557.0
-230.89296 -223.0661 558.0
-227.38632 -223.46587 559.0
-224.26537 -224.26537 561.0
-221.11638 -225.0649 563.0
-217.5536 -225.46466 564.0
-213.9768 -225.8644 565.0
-210.38599 -226.26416 566.0
-206.78113 -226.66393 567.0
-203.51993 -227.46346 569.0
-199.52934 -227.46346 569.0
-196.22607 -228.26297 571.0
-193.23138 -229.46227 574.0
-190.19458 -230.66153 577.0
-186.47052 -231.0613 578.0
-183.048 -231.8608 580.0
-179.59744 -232.66032 582.0
-175.81728 -233.06009 583.0
-171.72847 -233.06009 583.0
-168.21481 -233.8596 585.0
-164.67307 -234.65913 587.0
-160.82976 -235.0589 588.0
-156.97244 -235.45866 589.0
-152.84157 -235.45866 589.0
-149.46815 -236.65793 592.0
-145.56174 -237.0577 593.0
-141.40283 -237.0577 593.0
-137.47537 -237.45746 594.0
-133.75829 -238.25696 596.0
-129.79576 -238.65672 597.0
-289.3842 -215.18309 529.0
-286.21414 -215.58989 530.0
-283.5631 -216.40341 532.0
-280.358 -216.8102 533.0
-277.1389 -217.21696 534.0
-273.90573 -217.62375 535.0
-270.65857 -218.03052 536.0
-267.39737 -218.4373 537.0
-263.6312 -218.4373 537.0
-260.8329 -219.25082 539.0
-257.5296 -219.6576 540.0
-255.15208 -220.87793 543.0
-252.73248 -222.09824 546.0
-249.81494 -222.91179 548.0
-247.3182 -224.13213 551.0
-244.33754 -224.94568 553.0
-240.89397 -225.35242 554.0
-237.4364 -225.7592 555.0
-233.96481 -226.16597 556.0
-230.89296 -226.97954 558.0
-226.97954 -226.97954 558.0
-223.8656 -227.79309 560.0
-220.72363 -228.60661 562.0
-217.16788 -229.01338 563.0
-213.9768 -229.82693 565.0
-210.01427 -229.82693 565.0
-206.41643 -230.23372 566.0
-203.16225 -231.04727 568.0
-199.52934 -231.45403 569.0
-196.56972 -232.67435 572.0
-192.89474 -233.08113 573.0
-189.53534 -233.89468 575.0
-186.1479 -234.7082 577.0
-182.7324 -235.52176 579.0
-179.28886 -236.33531 581.0
-175.21411 -236.33531 581.0
-171.72847 -237.14888 583.0
-167.92725 -237.55562 584.0
-164.39253 -238.36917 586.0
-160.55624 -238.77596 587.0
-156.70593 -239.18272 588.0
-153.10107 -239.99628 590.0
-149.46815 -240.80981 592.0
-288.2901 -218.06558 527.0
-285.6741 -218.89316 529.0
-283.0301 -219.72073 531.0
-280.358 -220.54831 533.0
-278.17688 -221.78964 536.0
-274.9297 -222.20343 537.0
-271.1635 -222.20343 537.0
-267.89532 -222.61722 538.0
-265.104 -223.4448 540.0
-261.3168 -223.4448 540.0
-258.48343 -224.27237 542.0
-256.0919 -225.51375 545.0
-252.73248 -225.92754 546.0
-249.35907 -226.34132 547.0
-246.86934 -227.58266 550.0
-243.45386 -227.99644 551.0
-240.89397 -229.23781 554.0
-237.00859 -229.23781 554.0
-233.544 -229.6516 555.0
-230.47919 -230.47917 557.0
-226.57277 -230.47917 557.0
-223.46584 -231.30675 559.0
-220.33087 -232.13432 561.0
-216.78214 -232.54813 562.0
-213.21936 -232.96191 563.0
-210.01427 -233.78946 565.0
-206.05174 -233.78946 565.0
-202.44688 -234.20325 566.0
-199.88 -235.8584 570.0
-196.56972 -236.68597 572.0
-192.89474 -237.09976 573.0
-189.53534 -237.92734 575.0
-185.82527 -238.34113 576.0
-182.41681 -239.1687 578.0
-178.98027 -239.99626 580.0

