ply
format ascii 1.0
comment made by @arthurmuchir
element vertex 1182
property float x
property float y
property float z
end_header
-113.237274 -96.46138 598.0
-121.01507 -100.15039 595.0
-116.84215 -100.15039 595.0
-112.85855 -100.31871 596.0
-108.86096 -100.48704 597.0
-124.5568 -103.797325 592.0
-120.404915 -103.797325 592.0
-116.25302 -103.797325 592.0
-112.6692 -104.323326 595.0
-108.86096 -104.67399 597.0
-187.97838 -99.743614 547.0
-127.83904 -107.219826 588.0
-123.925606 -107.402176 589.0
-119.79476 -107.402176 589.0
-116.056656 -107.76687 591.0
-112.479836 -108.3139 594.0
-108.67862 -108.6786 596.0
-191.464 -103.39057 546.0
-187.63474 -103.39057 546.0
-183.80545 -103.39057 546.0
-180.30579 -103.57993 547.0
-135.85529 -111.15433 587.0
-131.73845 -111.15433 587.0
-127.62163 -111.15433 587.0
-123.7152 -111.3437 588.0
-119.79476 -111.53305 589.0
-116.056656 -111.91178 591.0
-112.290474 -112.2905 593.0
-108.49627 -112.66921 595.0
-191.11334 -107.02347 545.0
-186.94743 -106.8271 544.0
-183.46881 -107.02347 545.0
-179.97617 -107.21985 546.0
-177.11472 -107.80897 549.0
-139.25676 -114.68204 584.0
-135.16096 -114.68204 584.0
-131.2896 -114.87841 585.0
-127.186806 -114.87841 585.0
-123.2944 -115.074776 586.0
-119.59137 -115.46753 588.0
-115.86028 -115.86027 590.0
-112.290474 -116.44939 593.0
-190.06134 -110.23558 542.0
-186.26012 -110.23558 542.0
-182.79553 -110.438965 543.0
-179.3169 -110.64236 544.0
-176.14688 -111.04912 546.0
-143.35254 -118.77781 584.0
-138.77985 -118.37105 582.0
-134.46666 -118.167656 581.0
-130.84074 -118.57444 583.0
-126.96938 -118.77781 584.0
-123.2944 -119.184586 586.0
-119.79476 -119.794754 589.0
-115.6639 -119.794754 589.0
-98.71969 -124.47265 612.0
-94.58181 -124.67603 613.0
-90.42992 -124.87941 614.0
-86.264 -125.0828 615.0
-189.36 -113.616 540.0
-185.5728 -113.616 540.0
-182.12225 -113.8264 541.0
-178.98727 -114.2472 543.0
-176.14688 -114.8784 546.0
-146.4384 -122.032 580.0
-142.37067 -122.032 580.0
-138.30293 -122.032 580.0
-134.23521 -122.032 580.0
-130.61632 -122.4528 582.0
-126.96938 -122.873604 584.0
-123.50481 -123.5048 587.0
-106.60267 -127.9232 608.0
-102.33857 -127.9232 608.0
-98.23577 -128.1336 609.0
-94.11893 -128.344 610.0
-90.13536 -128.7648 612.0
-86.264 -129.396 615.0
-192.78952 -117.18579 539.0
-189.00934 -117.18579 539.0
-185.22916 -117.18579 539.0
-181.78561 -117.4032 540.0
-178.65765 -117.83802 542.0
-175.50165 -118.27285 544.0
-149.72765 -125.447495 577.0
-145.93344 -125.66491 578.0
-142.1252 -125.88232 579.0
-138.0645 -125.88232 579.0
-134.23521 -126.09973 580.0
-130.84074 -126.75196 583.0
-126.96938 -126.96939 584.0
-123.50481 -127.62162 587.0
-114.75215 -131.75247 606.0
-110.13738 -131.31764 604.0
-106.25201 -131.75247 606.0
-102.00192 -131.75247 606.0
-98.07447 -132.1873 608.0
-94.11893 -132.62213 610.0
-89.98808 -132.83954 611.0
-192.07416 -120.51712 537.0
-188.30801 -120.51712 537.0
-184.8855 -120.74154 538.0
-181.44897 -120.965965 539.0
-178.32803 -121.414825 541.0
-175.17905 -121.86367 543.0
-153.77435 -129.49417 577.0
-149.72765 -129.49417 577.0
-145.68097 -129.49417 577.0
-141.63428 -129.49417 577.0
-138.0645 -129.94304 579.0
-134.46666 -130.39188 581.0
-130.84074 -130.84074 583.0
-126.96938 -131.06517 584.0
-114.184074 -135.32927 603.0
-109.7727 -135.10484 602.0
-105.726006 -135.32927 603.0
-101.66529 -135.5537 604.0
-97.913155 -136.22697 607.0
-93.96464 -136.67584 609.0
-89.840805 -136.90025 610.0
-192.07416 -124.28327 537.0
-187.95734 -124.051834 536.0
-184.1982 -124.051834 536.0
-181.44897 -124.746155 539.0
-177.99841 -124.977585 540.0
-174.85643 -125.44047 542.0
-157.274 -133.07799 575.0
-153.24133 -133.07799 575.0
-149.20868 -133.07799 575.0
-145.17601 -133.07799 575.0
-141.63428 -133.54086 577.0
-138.0645 -134.00375 579.0
-134.46666 -134.46663 581.0
-131.06517 -135.16095 584.0
-121.62524 -138.40111 598.0
-117.43127 -138.40111 598.0
-113.616 -138.86398 600.0
-109.408005 -138.86398 600.0
-105.375336 -139.09543 601.0
-101.66529 -139.78975 604.0
-97.913155 -140.48407 607.0
-93.96464 -140.94695 609.0
-196.9344 -128.76482 540.0
-192.07416 -128.04945 537.0
-187.95734 -127.811005 536.0
-184.1982 -127.811005 536.0
-181.11234 -128.2879 538.0
-177.99841 -128.76482 540.0
-174.53381 -129.00327 541.0
-160.7456 -136.63377 573.0
-156.72696 -136.63377 573.0
-152.44182 -136.39532 572.0
-148.68968 -136.63377 573.0
-144.67105 -136.63377 573.0
-141.38881 -137.34914 576.0
-138.0645 -138.0645 579.0
-129.57835 -142.1182 596.0
-125.39841 -142.1182 596.0
-121.21846 -142.1182 596.0
-117.23489 -142.35664 597.0
-113.237274 -142.59511 598.0
-109.408005 -143.072 600.0
-105.375336 -143.31047 601.0
-101.49697 -143.78738 603.0
-196.20502 -132.06107 538.0
-191.71648 -131.57014 536.0
-187.95734 -131.57014 536.0
-183.85454 -131.32468 535.0
-181.44897 -132.30655 539.0
-177.99841 -132.55202 540.0
-163.90161 -139.91602 570.0
-160.46507 -140.40694 572.0
-156.45345 -140.40694 572.0
-152.44182 -140.40694 572.0
-148.68968 -140.65242 573.0
-144.92352 -140.89787 574.0
-141.38881 -141.38881 576.0
-133.085 -145.56174 593.0
-128.9261 -145.56174 593.0
-124.767204 -145.56174 593.0
-120.81169 -145.80722 594.0
-116.84215 -146.05267 595.0
-113.04792 -146.54361 597.0
-109.043304 -146.78908 598.0
-105.200005 -147.28001 600.0
-200.7216 -136.3392 540.0
-195.84032 -135.58177 537.0
-191.35881 -135.0768 535.0
-187.60667 -135.0768 535.0
-183.85454 -135.0768 535.0
-181.78561 -136.3392 540.0
-178.65765 -136.84416 542.0
-171.59525 -143.66113 569.0
-167.31007 -143.40865 568.0
-163.61406 -143.66113 569.0
-159.904 -143.9136 570.0
-155.9064 -143.9136 570.0
-152.44182 -144.41856 572.0
-148.68968 -144.67105 573.0
-145.17601 -145.176 575.0
-141.63428 -145.68097 577.0
-136.78105 -149.21568 591.0
-132.41173 -148.9632 590.0
-128.05646 -148.71072 589.0
-124.136 -148.9632 590.0
-120.404915 -149.46817 592.0
-116.64577 -149.97313 594.0
-113.04792 -150.73056 597.0
-109.22565 -151.23553 599.0
-204.5088 -140.1264 540.0
-199.60649 -139.34792 537.0
-195.47563 -139.08842 536.0
-191.35881 -138.82893 535.0
-187.95734 -139.08842 536.0
-184.54185 -139.34792 537.0
-181.78561 -140.1264 540.0
-177.99841 -140.1264 540.0
-175.27724 -147.39221 568.0
-171.29367 -147.39221 568.0
-166.72096 -146.87323 566.0
-163.03896 -147.13272 567.0
-159.34294 -147.39221 568.0
-155.63289 -147.6517 569.0
-152.44182 -148.43019 572.0
-148.68968 -148.68968 573.0
-145.17601 -149.20866 575.0
-141.38881 -149.46817 576.0
-140.21057 -152.58208 588.0
-136.08673 -152.58208 588.0
-131.96288 -152.58208 588.0
-127.83904 -152.58208 588.0
-123.925606 -152.84158 589.0
-120.404915 -153.62006 592.0
-116.84215 -154.39853 595.0
-113.04792 -154.91751 597.0
-85.98347 -159.06941 613.0
-81.6843 -159.06941 613.0
-207.91028 -143.6471 539.0
-203.37265 -143.11409 537.0
-199.23479 -142.84758 536.0
-195.47563 -142.84758 536.0
-191.71648 -142.84758 536.0
-188.30801 -143.11409 537.0
-185.5728 -143.9136 540.0
-181.78561 -143.9136 540.0
-182.27654 -150.57628 565.0
-178.31401 -150.57628 565.0
-174.35147 -150.57628 565.0
-170.38895 -150.57628 565.0
-166.4264 -150.57628 565.0
-162.46387 -150.57628 565.0
-159.06241 -151.10928 567.0
-155.63289 -151.64229 569.0
-152.17531 -152.17531 571.0
-148.68968 -152.70831 573.0
-145.42848 -153.50783 576.0
-143.598 -155.9064 585.0
-139.73366 -156.17291 586.0
-135.39241 -155.9064 585.0
-131.51402 -156.17291 586.0
-127.83904 -156.70592 588.0
-123.925606 -156.97243 589.0
-120.404915 -157.77194 592.0
-116.84215 -158.57147 595.0
-94.27322 -162.83557 611.0
-89.840805 -162.56908 610.0
-85.702934 -162.83557 611.0
-81.6843 -163.36859 613.0
-77.63761 -163.9016 615.0
-212.0832 -147.7008 540.0
-207.13881 -146.88023 537.0
-202.99394 -146.60672 536.0
-199.60649 -146.88023 537.0
-195.84032 -146.88023 537.0
-192.43185 -147.15375 538.0
-189.00934 -147.42728 539.0
-185.5728 -147.7008 540.0
-182.4589 -148.24783 542.0
-184.59094 -153.1712 560.0
-181.3087 -153.71823 562.0
-177.99841 -154.26527 564.0
-174.0429 -154.26527 564.0
-170.08739 -154.26527 564.0
-166.4264 -154.5388 565.0
-162.46387 -154.5388 565.0
-158.50134 -154.5388 565.0
-155.35936 -155.35936 568.0
-151.64232 -155.63287 569.0
-148.68968 -156.72696 573.0
-145.68097 -157.82103 577.0
-143.10707 -159.46216 583.0
-139.25676 -159.73567 584.0
-135.39241 -160.0092 585.0
-131.2896 -160.0092 585.0
-127.83904 -160.82976 588.0
-124.136 -161.3768 590.0
-120.404915 -161.92383 592.0
-98.23577 -166.57367 609.0
-93.96464 -166.57367 609.0
-89.69352 -166.57367 609.0
-85.56267 -166.8472 610.0
-81.41779 -167.12071 611.0
-77.38513 -167.66776 613.0
-210.90497 -150.6464 537.0
-206.75307 -150.36586 536.0
-202.99394 -150.36586 536.0
-199.60649 -150.6464 537.0
-196.5697 -151.20746 539.0
-193.1472 -151.48799 540.0
-189.36 -151.48799 540.0
-186.60376 -152.32959 543.0
-187.5085 -156.25706 557.0
-183.93167 -156.53758 558.0
-180.01825 -156.53758 558.0
-177.0516 -157.37918 561.0
-173.42572 -157.65973 562.0
-170.08739 -158.2208 564.0
-166.13184 -158.2208 564.0
-162.17632 -158.2208 564.0
-158.50134 -158.50133 565.0
-155.35936 -159.34293 568.0
-151.9088 -159.90399 570.0
-148.68968 -160.74559 573.0
-145.93344 -162.14825 578.0
-142.61613 -162.98985 581.0
-139.01831 -163.55093 583.0
-135.39241 -164.11198 585.0
-131.51402 -164.39253 586.0
-127.83904 -164.95358 588.0
-124.136 -165.51466 590.0
-105.726006 -169.16159 603.0
-101.66529 -169.44212 604.0
-97.42924 -169.44212 604.0
-93.501755 -170.00319 606.0
-89.39896 -170.28372 607.0
-85.4224 -170.84479 609.0
-81.41779 -171.40585 611.0
-77.38513 -171.96693 613.0
-214.67113 -154.41255 537.0
-210.5122 -154.125 536.0
-206.36734 -153.83746 535.0
-202.6152 -153.83746 535.0
-199.60649 -154.41255 537.0
-196.5697 -154.98764 539.0
-193.1472 -155.27519 540.0
-190.412 -156.13782 543.0
-187.63474 -157.00047 546.0
-184.81538 -157.8631 549.0
-182.61316 -159.30084 554.0
-179.0504 -159.5884 555.0
-176.10481 -160.45102 558.0
-173.11714 -161.31367 561.0
-169.7858 -161.88876 563.0
-166.4264 -162.46385 565.0
-162.46387 -162.46385 565.0
-158.50134 -162.46385 565.0
-155.08585 -163.03896 567.0
-151.64232 -163.61403 569.0
-148.68968 -164.76422 573.0
-145.68097 -165.91441 577.0
-142.1252 -166.4895 579.0
-138.5414 -167.0646 581.0
-135.16096 -167.92723 584.0
-131.51402 -168.50233 586.0
-117.43127 -171.9529 598.0
-113.426636 -172.24043 599.0
-109.408005 -172.52798 600.0
-105.375336 -172.81552 601.0
-101.160324 -172.81552 601.0
-97.10662 -173.10309 602.0
-93.19317 -173.67818 604.0
-89.39896 -174.54082 607.0
-85.4224 -175.1159 609.0
-81.41779 -175.691 611.0
-218.84407 -158.4733 538.0
-213.87161 -157.58961 535.0
-209.72672 -157.29504 534.0
-205.98161 -157.29504 534.0
-202.6152 -157.58961 535.0
-199.60649 -158.17873 537.0
-196.5697 -158.76785 539.0
-193.1472 -159.06241 540.0
-190.412 -159.94609 543.0
-187.63474 -160.82976 546.0
-184.81538 -161.71346 549.0
-181.6243 -162.30257 551.0
-178.72778 -163.18625 554.0
-175.7892 -164.06993 557.0
-172.80853 -164.95361 560.0
-169.48422 -165.54272 562.0
-166.13184 -166.13185 564.0
-162.46387 -166.4264 565.0
-158.50134 -166.4264 565.0
-155.08585 -167.01553 567.0
-151.9088 -167.89922 570.0
-148.68968 -168.7829 573.0
-145.17601 -169.37201 575.0
-141.87975 -170.25569 578.0
-138.5414 -171.13937 581.0
-135.16096 -172.02304 584.0
-124.5568 -174.37953 592.0
-120.81169 -174.96864 594.0
-117.03852 -175.55779 596.0
-113.04792 -175.85233 597.0
-108.86096 -175.85233 597.0
-105.02467 -176.44145 599.0
-101.160324 -177.03058 601.0
-97.10662 -177.32513 602.0
-93.501755 -178.50337 606.0
-89.39896 -178.79793 607.0
-217.62375 -161.34174 535.0
-213.47183 -161.04016 534.0
-209.72672 -161.04016 534.0
-205.98161 -161.04016 534.0
-202.99394 -161.64333 536.0
-199.60649 -161.94489 537.0
-196.5697 -162.54803 539.0
-193.50488 -163.15118 541.0
-190.76268 -164.05591 544.0
-187.63474 -164.65904 546.0
-184.81538 -165.56377 549.0
-181.29468 -165.86534 550.0
-178.72778 -167.07164 554.0
-175.7892 -167.97635 557.0
-172.80853 -168.88107 560.0
-169.48422 -169.48422 562.0
-166.13184 -170.08737 564.0
-162.46387 -170.38895 565.0
-158.50134 -170.38895 565.0
-155.35936 -171.29366 568.0
-151.9088 -171.89682 570.0
-148.43019 -172.49995 572.0
-145.17601 -173.40468 575.0
-141.63428 -174.00783 577.0
-138.30293 -174.91254 580.0
-135.16096 -176.11884 584.0
-132.63615 -178.22984 591.0
-128.49129 -178.22984 591.0
-124.346405 -178.22984 591.0
-120.404915 -178.53142 592.0
-116.64577 -179.13457 594.0
-112.85855 -179.73772 596.0
-108.86096 -180.03928 597.0
-104.849335 -180.34087 598.0
-100.992004 -180.94402 600.0
-97.10662 -181.54715 602.0
-221.78967 -165.40247 536.0
-217.21698 -164.78528 534.0
-213.07208 -164.4767 533.0
-209.33398 -164.4767 533.0
-205.98161 -164.78528 534.0
-202.99394 -165.40247 536.0
-199.60649 -165.71104 537.0
-196.5697 -166.32822 539.0
-193.86256 -167.25398 542.0
-190.76268 -167.87115 544.0
-187.97838 -168.7969 547.0
-184.81538 -169.41408 549.0
-181.6243 -170.03127 551.0
-178.72778 -170.95702 554.0
-176.10481 -172.19136 558.0
-173.11714 -173.11711 561.0
-169.48422 -173.4257 562.0
-166.13184 -174.04288 564.0
-162.46387 -174.35147 565.0
-158.78188 -174.66006 566.0
-155.35936 -175.27724 568.0
-151.64232 -175.58582 569.0
-148.1707 -176.20299 571.0
-144.92352 -177.12875 574.0
-141.63428 -178.0545 577.0
-138.5414 -179.28886 581.0
-135.62386 -180.83179 586.0
-132.1873 -181.75755 589.0
-128.05646 -181.75755 589.0
-123.925606 -181.75755 589.0
-119.99814 -182.06615 590.0
-116.4494 -182.9919 593.0
-112.6692 -183.60907 595.0
-108.86096 -184.22624 597.0
-105.02467 -184.84341 599.0
-100.992004 -185.152 600.0
-220.9621 -168.5304 534.0
-216.81021 -168.2148 533.0
-212.67232 -167.8992 532.0
-209.33398 -168.2148 533.0
-205.98161 -168.5304 534.0
-202.2365 -168.5304 534.0
-199.23479 -169.1616 536.0
-196.5697 -170.1084 539.0
-193.50488 -170.7396 541.0
-191.11334 -172.002 545.0
-187.97838 -172.6332 547.0
-185.15201 -173.58 550.0
-181.95392 -174.2112 552.0
-179.0504 -175.158 555.0
-176.10481 -176.1048 558.0
-173.11714 -177.0516 561.0
-169.7858 -177.6828 563.0
-166.4264 -178.314 565.0
-162.46387 -178.314 565.0
-159.06241 -178.9452 567.0
-155.35936 -179.2608 568.0
-151.64232 -179.5764 569.0
-148.1707 -180.2076 571.0
-144.67105 -180.8388 573.0
-141.63428 -182.1012 577.0
-138.5414 -183.3636 581.0
-135.16096 -184.3104 584.0
-131.51402 -184.9416 586.0
-127.83904 -185.5728 588.0
-123.7152 -185.5728 588.0
-119.99814 -186.204 590.0
-116.25302 -186.8352 592.0
-112.6692 -187.782 595.0
-108.86096 -188.4132 597.0
-225.54881 -172.92075 536.0
-220.9621 -172.27551 534.0
-216.81021 -171.95291 533.0
-212.27257 -171.30768 531.0
-208.54848 -171.30768 531.0
-205.59587 -171.95291 533.0
-202.2365 -172.27551 534.0
-199.60649 -173.24335 537.0
-196.9344 -174.2112 540.0
-193.86256 -174.85643 542.0
-190.76268 -175.50165 544.0
-188.32204 -176.7921 548.0
-185.48865 -177.75993 551.0
-182.61316 -178.72778 554.0
-179.0504 -179.0504 555.0
-176.42041 -180.34085 559.0
-173.42572 -181.3087 562.0
-169.7858 -181.6313 563.0
-166.4264 -182.27654 565.0
-162.46387 -182.27654 565.0
-158.78188 -182.59914 566.0
-155.35936 -183.24437 568.0
-151.64232 -183.56699 569.0
-147.91121 -183.8896 570.0
-144.67105 -184.85744 573.0
-141.38881 -185.82527 576.0
-138.30293 -187.11572 580.0
-134.92953 -188.08356 583.0
-131.51402 -189.0514 586.0
-127.62163 -189.37402 587.0
-123.925606 -190.01924 589.0
-119.99814 -190.34186 590.0
-116.056656 -190.66447 591.0
-112.6692 -191.95493 595.0
-268.54056 -180.30577 547.0
-266.156 -181.29466 550.0
-264.20633 -182.61316 554.0
-229.73576 -177.00952 537.0
-224.70721 -176.02063 534.0
-220.5483 -175.69101 533.0
-216.40343 -175.36137 532.0
-211.8728 -174.70213 530.0
-208.15575 -174.70213 530.0
-205.21014 -175.36137 532.0
-202.2365 -176.02063 534.0
-199.60649 -177.00952 537.0
-196.9344 -177.99838 540.0
-194.22025 -178.98727 543.0
-191.11334 -179.64653 545.0
-188.32204 -180.6354 548.0
-185.82529 -181.95392 552.0
-182.61316 -182.61316 554.0
-180.01825 -183.93167 558.0
-177.0516 -184.92055 561.0
-173.42572 -185.25018 562.0
-170.08739 -185.90944 564.0
-166.4264 -186.23906 565.0
-162.46387 -186.23906 565.0
-158.78188 -186.56868 566.0
-155.35936 -187.22794 568.0
-151.37581 -187.22794 568.0
-147.91121 -187.88719 570.0
-144.67105 -188.87607 573.0
-141.38881 -189.86496 576.0
-138.0645 -190.85384 579.0
-134.69809 -191.84271 582.0
-131.06517 -192.50197 584.0
-127.62163 -193.49084 587.0
-123.925606 -194.1501 589.0
-269.64865 -179.76575 534.0
-267.89532 -181.1123 538.0
-267.06775 -183.13216 544.0
-265.6721 -184.81535 549.0
-262.77557 -185.48863 551.0
-261.2607 -187.17183 556.0
-258.28705 -187.84511 558.0
-243.45386 -185.48863 551.0
-237.85019 -184.14207 547.0
-229.30794 -180.43904 536.0
-224.70721 -179.76575 534.0
-220.13452 -179.09247 532.0
-215.99666 -178.75583 531.0
-211.8728 -178.41919 530.0
-208.54848 -178.75583 531.0
-205.59587 -179.42911 533.0
-202.2365 -179.76575 534.0
-199.60649 -180.77567 537.0
-196.9344 -181.78558 540.0
-193.86256 -182.45886 542.0
-191.464 -183.80544 546.0
-189.00934 -185.152 550.0
-186.16194 -186.16191 553.0
-182.94281 -186.83519 555.0
-180.01825 -187.84511 558.0
-177.0516 -188.85504 561.0
-173.7343 -189.5283 563.0
-170.08739 -189.86496 564.0
-166.4264 -190.20158 565.0
-162.46387 -190.20158 565.0
-159.06241 -190.87486 567.0
-155.08585 -190.87486 567.0
-151.37581 -191.2115 568.0
-148.1707 -192.22144 571.0
-144.67105 -192.8947 573.0
-141.14334 -193.568 575.0
-137.82603 -194.57791 578.0
-134.46666 -195.58783 581.0
-131.06517 -196.59775 584.0
-127.186806 -196.93439 585.0
-279.832 -182.8236 532.0
-276.6199 -183.16724 533.0
-272.8818 -183.16724 533.0
-269.14368 -183.16724 533.0
-265.90353 -183.5109 534.0
-262.15842 -183.5109 534.0
-259.86505 -184.54185 537.0
-257.5296 -185.57281 540.0
-259.38113 -189.69666 552.0
-255.50977 -189.69666 552.0
-250.72667 -189.00934 550.0
-245.97163 -188.32204 548.0
-240.80281 -187.29108 545.0
-235.67606 -186.26012 542.0
-229.30794 -184.1982 536.0
-224.70721 -183.5109 534.0
-220.13452 -182.8236 532.0
-215.58987 -182.13629 530.0
-211.8728 -182.13629 530.0
-208.94124 -182.8236 532.0
-205.59587 -183.16724 533.0
-202.2365 -183.5109 534.0
-199.60649 -184.54185 537.0
-196.9344 -185.57281 540.0
-194.57793 -186.94742 544.0
-191.81467 -187.9784 547.0
-189.00934 -189.00934 550.0
-186.49858 -190.38396 554.0
-183.60205 -191.41492 557.0
-180.01825 -191.75858 558.0
-177.0516 -192.78954 561.0
-173.7343 -193.47684 563.0
-169.7858 -193.47684 563.0
-166.4264 -194.16414 565.0
-162.46387 -194.16414 565.0
-158.50134 -194.16414 565.0
-154.81233 -194.5078 566.0
-151.37581 -195.19511 568.0
-147.91121 -195.88242 570.0
-144.67105 -196.91338 573.0
-141.14334 -197.60068 575.0
-137.82603 -198.63164 578.0
-134.23521 -199.31894 580.0
-287.83423 -186.90533 533.0
-282.49707 -185.85335 530.0
-278.254 -185.50267 529.0
-275.06296 -185.85335 530.0
-270.83392 -185.50267 529.0
-267.12384 -185.50267 529.0
-263.4138 -185.50267 529.0
-260.6856 -186.20401 531.0
-258.4133 -187.25601 534.0
-256.0989 -188.30801 537.0
-257.03165 -191.81467 547.0
-253.19536 -191.81467 547.0
-249.35907 -191.81467 547.0
-244.62508 -191.11334 545.0
-240.36098 -190.76266 544.0
-235.24123 -189.71068 541.0
-229.73576 -188.30801 537.0
-224.70721 -187.25601 534.0
-220.13452 -186.55467 532.0
-215.58987 -185.85335 530.0
-212.27257 -186.20401 531.0
-208.94124 -186.55467 532.0
-205.98161 -187.25601 534.0
-202.2365 -187.25601 534.0
-199.60649 -188.30801 537.0
-196.9344 -189.36002 540.0
-195.29327 -191.46402 546.0
-192.16534 -192.16534 548.0
-190.38396 -194.26935 554.0
-187.17184 -194.97067 556.0
-183.60205 -195.32133 557.0
-180.34085 -196.02267 559.0
-177.0516 -196.72401 561.0
-173.42572 -197.07468 562.0
-169.48422 -197.07468 562.0
-166.4264 -198.12668 565.0
-162.46387 -198.12668 565.0
-158.50134 -198.12668 565.0
-154.81233 -198.47734 566.0
-151.1093 -198.82802 567.0
-147.6517 -199.52934 569.0
-144.41856 -200.58134 572.0
-141.14334 -201.63335 575.0
-137.58759 -202.33467 577.0
-134.46666 -203.73734 581.0
-103.97267 -207.94534 593.0
-287.196 -187.782 525.0
-284.05405 -188.13968 526.0
-279.832 -187.782 525.0
-276.676 -188.13968 526.0
-272.46802 -187.782 525.0
-268.786 -187.782 525.0
-265.104 -187.782 525.0
-261.91995 -188.13968 526.0
-258.23096 -188.13968 526.0
-256.4776 -189.5704 530.0
-259.43726 -194.57793 544.0
-255.62196 -194.57793 544.0
-251.80672 -194.57793 544.0
-247.99147 -194.57793 544.0
-243.27852 -193.86256 542.0
-239.03545 -193.50488 541.0
-234.80641 -193.1472 540.0
-230.59138 -192.78954 539.0
-224.70721 -191.00113 534.0
-220.13452 -190.28577 532.0
-216.40343 -190.28577 532.0
-212.67232 -190.28577 532.0
-209.33398 -190.64345 533.0
-205.98161 -191.00113 534.0
-202.6152 -191.3588 535.0
-199.97821 -192.43185 538.0
-197.2991 -193.50488 541.0
-195.65097 -195.65097 547.0
-193.21735 -197.08168 551.0
-190.38396 -198.15472 554.0
-187.17184 -198.87009 556.0
-183.93167 -199.58545 558.0
-180.34085 -199.94313 559.0
-177.0516 -200.65848 561.0
-173.11714 -200.65848 561.0
-169.48422 -201.01616 562.0
-165.54272 -201.01616 562.0
-162.17632 -201.73154 564.0
-158.50134 -202.0892 565.0
-154.5388 -202.0892 565.0
-151.1093 -202.80457 567.0
-147.39221 -203.16225 568.0
-143.66112 -203.51993 569.0
-140.40694 -204.59297 572.0
-137.34912 -206.02368 576.0
-133.5409 -206.38136 577.0
-130.16747 -207.4544 580.0
-126.09974 -207.4544 580.0
-118.777824 -208.88513 584.0
-110.7756 -209.2428 585.0
-106.672806 -209.2428 585.0
-103.096 -210.31584 588.0
-99.30881 -211.0312 590.0
-95.009636 -210.67352 589.0
-91.03306 -211.0312 590.0
-87.18976 -211.74657 592.0
-286.10193 -190.73462 523.0
-282.43396 -190.73462 523.0
-278.766 -190.73462 523.0
-275.09802 -190.73462 523.0
-270.91104 -190.36992 522.0
-266.73813 -190.00522 521.0
-263.5891 -190.36992 522.0
-260.42612 -190.73462 523.0
-257.24908 -191.0993 524.0
-252.60625 -190.36992 522.0
-258.96033 -198.02849 543.0
-254.68219 -197.66379 542.0
-250.41808 -197.29909 541.0
-246.62387 -197.29909 541.0
-242.38081 -196.9344 540.0
-238.59361 -196.9344 540.0
-234.80641 -196.9344 540.0
-230.59138 -196.5697 539.0
-224.70721 -194.74625 534.0
-220.5483 -194.38156 533.0
-216.40343 -194.01686 532.0
-212.67232 -194.01686 532.0
-209.33398 -194.38156 533.0
-205.98161 -194.74625 534.0
-203.37265 -195.84032 537.0
-200.7216 -196.9344 540.0
-199.12256 -199.12256 546.0
-196.00865 -199.85196 548.0
-193.56801 -201.31071 552.0
-190.38396 -202.0401 554.0
-187.17184 -202.7695 556.0
-183.60205 -203.13419 557.0
-180.01825 -203.49889 558.0
-176.73601 -204.22827 560.0
-173.11714 -204.59297 561.0
-169.18265 -204.59297 561.0
-165.24817 -204.59297 561.0
-161.88878 -205.32236 563.0
-158.50134 -206.05173 565.0
-154.5388 -206.05173 565.0
-150.57628 -206.05173 565.0
-147.39221 -207.14581 568.0
-143.66112 -207.51051 569.0
-140.16147 -208.2399 571.0
-136.87222 -209.33398 574.0
-133.5409 -210.42805 577.0
-129.71861 -210.79276 578.0
-126.09974 -211.52213 580.0
-122.2424 -211.88683 581.0
-118.37105 -212.25151 582.0
-114.485664 -212.61621 583.0
-110.58624 -212.98091 584.0
-106.672806 -213.3456 585.0
-102.57001 -213.3456 585.0
-98.4672 -213.3456 585.0
-94.52572 -213.7103 586.0
-90.72447 -214.43968 588.0
-86.74792 -214.80438 589.0
-82.897606 -215.53377 591.0
-281.72562 -191.42892 515.0
-279.1938 -192.17235 517.0
-275.5679 -192.17235 517.0
-271.94202 -192.17235 517.0
-268.31613 -192.17235 517.0
-264.69022 -192.17235 517.0
-261.06433 -192.17235 517.0
-258.43433 -192.91576 519.0
-255.77628 -193.65918 521.0
-253.09016 -194.40259 523.0
-257.5296 -200.7216 540.0
-253.74242 -200.7216 540.0
-249.95522 -200.7216 540.0
-246.16801 -200.7216 540.0
-242.38081 -200.7216 540.0
-238.59361 -200.7216 540.0
-234.80641 -200.7216 540.0
-230.16359 -199.9782 538.0
-225.128 -198.86307 535.0
-220.9621 -198.49135 534.0
-216.81021 -198.11964 533.0
-213.07208 -198.11964 533.0
-209.72672 -198.49135 534.0
-206.75307 -199.23477 536.0
-203.75136 -199.9782 538.0
-201.09332 -201.0933 541.0
-199.12256 -202.95183 546.0
-196.00865 -203.69525 548.0
-193.91867 -205.55379 553.0
-190.38396 -205.92549 554.0
-186.8352 -206.2972 555.0
-183.27243 -206.6689 556.0
-179.69563 -207.04062 557.0
-176.10481 -207.41232 558.0
-172.49995 -207.78403 559.0
-168.88107 -208.15573 560.0
-165.24817 -208.52744 561.0
-161.60123 -208.89914 562.0
-158.22081 -209.64255 564.0
-154.5388 -210.01427 565.0
-150.57628 -210.01427 565.0
-146.87323 -210.38597 566.0
-143.40865 -211.1294 568.0
-139.916 -211.8728 570.0
-136.63377 -212.98792 573.0
-133.07802 -213.73132 575.0
-129.49419 -214.47475 577.0
-125.447495 -214.47475 577.0
-122.032005 -215.58986 580.0
-117.96427 -215.58986 580.0
-114.092926 -215.96158 581.0
-110.01815 -215.96158 581.0
-105.94341 -215.96158 581.0
-102.39467 -217.07668 584.0
-98.29889 -217.07668 584.0
-94.36441 -217.4484 585.0
-90.415886 -217.8201 586.0
-86.60064 -218.56354 588.0
-82.61707 -218.93523 589.0
-281.1786 -194.66206 514.0
-277.5737 -194.66206 514.0
-273.96884 -194.66206 514.0
-270.364 -194.66206 514.0
-266.75916 -194.66206 514.0
-263.6663 -195.0408 515.0
-260.55936 -195.41953 516.0
-257.43845 -195.79823 517.0
-254.7944 -196.55566 519.0
-257.0527 -204.13007 539.0
-253.2725 -204.13007 539.0
-249.49232 -204.13007 539.0
-245.71214 -204.13007 539.0
-242.38081 -204.5088 540.0
-238.59361 -204.5088 540.0
-234.37157 -204.13007 539.0
-229.73576 -203.37263 537.0
-225.54881 -202.99391 536.0
-220.9621 -202.23647 534.0
-217.21698 -202.23647 534.0
-213.47183 -202.23647 534.0
-210.11948 -202.6152 535.0
-207.52454 -203.75136 538.0
-204.5088 -204.5088 540.0
-201.83673 -205.64496 543.0
-199.12256 -206.78111 546.0
-196.36632 -207.91727 549.0
-193.56801 -209.05344 552.0
-190.38396 -209.81087 554.0
-186.49858 -209.81087 554.0
-182.61316 -209.81087 554.0
-179.37302 -210.56831 556.0
-175.7892 -210.94704 557.0
-172.19136 -211.32576 558.0
-168.57951 -211.70447 559.0
-164.95361 -212.0832 560.0
-161.31367 -212.46191 561.0
-157.65974 -212.84064 562.0
-154.26529 -213.59807 564.0
-150.57628 -213.9768 565.0
-146.61374 -213.9768 565.0
-143.15616 -214.73424 567.0
-139.916 -215.8704 570.0
-136.63377 -217.00656 573.0
-132.84657 -217.38527 574.0
-129.26976 -218.1427 576.0
-125.23008 -218.1427 576.0
-121.611206 -218.90016 578.0
-117.760895 -219.27887 579.0
-113.896545 -219.6576 580.0
-110.01815 -220.0363 581.0
-106.12576 -220.41504 582.0
-102.21934 -220.79376 583.0
-98.29889 -221.17247 584.0
-94.2031 -221.17247 584.0
-90.2616 -221.5512 585.0
-86.60064 -222.68736 588.0
-82.47681 -222.68736 588.0
-278.4434 -196.33826 509.0
-275.95364 -197.10973 511.0
-272.90283 -197.49545 512.0
-269.838 -197.88118 513.0
-266.75916 -198.26692 514.0
-263.15433 -198.26692 514.0
-260.0544 -198.65266 515.0
-257.43845 -199.42413 517.0
-253.81255 -199.42413 517.0
-252.12234 -200.96706 521.0
-255.62198 -206.75305 536.0
-251.86284 -206.75305 536.0
-248.56656 -207.1388 537.0
-244.80042 -207.1388 537.0
-241.03426 -207.1388 537.0
-237.2681 -207.1388 537.0
-233.50192 -207.1388 537.0
-229.30794 -206.75305 536.0
-225.54881 -206.75305 536.0
-220.9621 -205.98158 534.0
-217.21698 -205.98158 534.0
-213.47183 -205.98158 534.0
-210.5122 -206.75305 536.0
-208.296 -208.29599 540.0
-204.88754 -208.68173 541.0
-202.20845 -209.83893 544.0
-199.48726 -210.99612 547.0
-196.36632 -211.7676 549.0
-193.21735 -212.53906 551.0
-189.69666 -212.92479 552.0
-186.16194 -213.31053 553.0
-182.61316 -213.69626 554.0
-178.72778 -213.69626 554.0
-175.158 -214.08199 555.0
-171.5742 -214.46773 556.0
-167.97636 -214.85345 557.0
-164.36447 -215.23918 558.0
-160.73859 -215.62492 559.0
-157.37921 -216.3964 561.0
-153.99176 -217.16786 563.0
-150.57628 -217.93932 565.0
-146.61374 -217.93932 565.0
-143.40865 -219.09651 568.0
-139.916 -219.868 570.0
-136.63377 -221.0252 573.0
-132.84657 -221.41092 574.0
-129.04533 -221.79666 575.0
-125.23008 -222.1824 576.0
-121.4008 -222.56812 577.0
-117.5575 -222.95386 578.0
-113.896545 -223.72531 580.0
-110.01815 -224.11105 581.0
-106.12576 -224.4968 582.0
-102.39467 -225.26826 584.0
-98.29889 -225.26826 584.0
-94.36441 -225.654 585.0
-90.415886 -226.03972 586.0
-86.60064 -226.8112 588.0
-277.89633 -199.51529 508.0
-275.95364 -200.69354 511.0
-272.3698 -200.69354 511.0
-269.312 -201.08629 512.0
-266.24017 -201.47902 513.0
-262.13037 -201.08629 512.0
-259.04446 -201.47902 513.0
-255.9446 -201.87178 514.0
-252.83067 -202.26451 515.0
-250.18665 -203.05 517.0
-254.66818 -209.7267 534.0
-250.92303 -209.7267 534.0
-247.64081 -210.11946 535.0
-244.34454 -210.51219 536.0
-240.5854 -210.51219 536.0
-236.82625 -210.51219 536.0
-233.50192 -210.90495 537.0
-229.30794 -210.51219 536.0
-225.54881 -210.51219 536.0
-221.37587 -210.11946 535.0
-217.62375 -210.11946 535.0
-214.27136 -210.51219 536.0
-211.29771 -211.2977 538.0
-208.296 -212.08319 540.0
-205.26625 -212.86868 542.0
-202.58014 -214.04692 545.0
-199.12256 -214.43967 546.0
-196.00865 -215.22516 548.0
-192.86667 -216.01067 550.0
-189.353 -216.40341 551.0
-185.82529 -216.79614 552.0
-182.61316 -217.58165 554.0
-178.72778 -217.58165 554.0
-174.8424 -217.58165 554.0
-171.26561 -217.97438 555.0
-167.67479 -218.36713 556.0
-164.06992 -218.75989 557.0
-160.73859 -219.54536 559.0
-157.37921 -220.33087 561.0
-153.99176 -221.11635 563.0
-150.57628 -221.90186 565.0
-147.13272 -222.68733 567.0
-143.66112 -223.47284 569.0
-139.916 -223.86557 570.0
-136.63377 -225.04384 573.0
-133.07802 -225.82932 575.0
-129.04533 -225.82932 575.0
-125.23008 -226.22208 576.0
-121.611206 -227.00755 578.0
-117.35411 -226.61482 577.0
-113.70017 -227.4003 579.0
-110.01815 -228.1858 581.0
-106.308105 -228.9713 583.0
-102.39467 -229.36404 584.0
-98.4672 -229.75677 585.0
-277.3493 -202.67833 507.0
-274.87357 -203.47784 509.0
-269.17175 -201.87881 505.0
-266.156 -202.27856 506.0
-263.12625 -202.67833 507.0
-261.1064 -203.87761 510.0
-258.03458 -204.27736 511.0
-254.45074 -204.27736 511.0
-251.84882 -205.07689 513.0
-248.7349 -205.47665 514.0
-253.71436 -212.67233 532.0
-250.45314 -213.0721 533.0
-247.17792 -213.47185 534.0
-243.88867 -213.87161 535.0
-240.5854 -214.27136 536.0
-236.82625 -214.27136 536.0
-233.50192 -214.67113 537.0
-229.73576 -214.67113 537.0
-225.9696 -214.67113 537.0
-222.20345 -214.67113 537.0
-218.4373 -214.67113 537.0
-215.07088 -215.07089 538.0
-212.0832 -215.8704 540.0
-208.296 -215.8704 540.0
-205.64496 -217.0697 543.0
-202.58014 -217.8692 545.0
-199.12256 -218.26897 546.0
-195.65097 -218.66873 547.0
-192.516 -219.46826 549.0
-189.00934 -219.868 550.0
-185.48865 -220.26776 551.0
-181.95392 -220.66753 552.0
-178.72778 -221.46706 554.0
-174.8424 -221.46706 554.0
-171.26561 -221.8668 555.0
-167.3732 -221.8668 555.0
-164.06992 -222.66634 557.0
-161.02614 -223.8656 560.0
-157.65974 -224.66513 562.0
-154.5388 -225.8644 565.0
-150.84279 -226.26416 566.0
-147.39221 -227.06369 568.0
-143.66112 -227.46346 569.0
-121.8216 -231.46106 579.0
-117.35411 -230.66153 577.0
-274.6141 -204.20023 502.0
-271.63342 -204.607 503.0
-268.63873 -205.01376 504.0
-265.104 -205.01376 504.0
-262.0883 -205.42055 505.0
-259.5705 -206.23409 507.0
-256.0147 -206.23409 507.0
-252.95692 -206.64085 508.0
-250.376 -207.4544 510.0
-247.76706 -208.26796 512.0
-252.76054 -215.58989 530.0
-249.98326 -216.40341 532.0
-246.71506 -216.8102 533.0
-243.88867 -217.62375 535.0
-241.03426 -218.4373 537.0
-238.15178 -219.25082 539.0
-234.80641 -219.6576 540.0
-231.01921 -219.6576 540.0
-227.23201 -219.6576 540.0
-223.44481 -219.6576 540.0
-219.65761 -219.6576 540.0
-215.8704 -219.6576 540.0
-212.47594 -220.06438 541.0
-209.06747 -220.47116 542.0
-205.64496 -220.87793 543.0
-202.58014 -221.69148 545.0
-199.12256 -222.09824 546.0
-195.65097 -222.505 547.0
-192.516 -223.31856 549.0
-189.00934 -223.72534 550.0
-185.48865 -224.13213 551.0
-181.6243 -224.13213 551.0
-178.40518 -224.94568 553.0
-174.8424 -225.35242 554.0
-171.26561 -225.7592 555.0
-167.97636 -226.57275 557.0
-164.36447 -226.97954 558.0
-161.31367 -228.19983 561.0
-158.22081 -229.42017 564.0
-154.5388 -229.82693 565.0
-151.1093 -230.6405 567.0
-272.973 -206.47955 499.0
-271.09338 -207.7209 502.0
-267.5727 -207.7209 502.0
-265.104 -208.54848 504.0
-261.5693 -208.54848 504.0
-258.54654 -208.96227 505.0
-255.50977 -209.37605 506.0
-252.45897 -209.78984 507.0
-249.39415 -210.20364 508.0
-246.79921 -211.0312 510.0
-253.71436 -220.13452 532.0
-250.45314 -220.54831 533.0
-247.17792 -220.9621 534.0
-244.34454 -221.78964 536.0
-241.4831 -222.61722 538.0
-238.59361 -223.4448 540.0
-235.24123 -223.85858 541.0
-231.87483 -224.27237 542.0
-228.49442 -224.68617 543.0
-224.68616 -224.68617 543.0
-220.47116 -224.27237 542.0
-217.06967 -224.68617 543.0
-213.26144 -224.68617 543.0
-209.4532 -224.68617 543.0
-206.0237 -225.09996 544.0
-202.58014 -225.51375 545.0
-199.12256 -225.92754 546.0
-195.65097 -226.34132 547.0
-192.16534 -226.75511 548.0
-189.00934 -227.58266 550.0
-185.48865 -227.99644 551.0
-181.95392 -228.41023 552.0
-178.40518 -228.82402 553.0
-174.8424 -229.23781 554.0
-171.88278 -230.47917 557.0
-168.57951 -231.30675 559.0
-165.24817 -232.13432 561.0
-161.31367 -232.13432 561.0

