ply
format ascii 1.0
comment made by @arthurmuchir
element vertex 760
property float x
property float y
property float z
end_header
-251.79271 -104.19008 619.0
-247.85121 -104.35839 620.0
-244.28844 -104.69504 622.0
-239.92615 -104.69504 622.0
-254.06503 -107.654655 614.0
-250.57239 -108.00533 616.0
-247.05168 -108.35599 618.0
-243.50294 -108.70666 620.0
-239.15468 -108.70666 620.0
-235.18513 -108.88199 621.0
-257.5296 -111.59614 612.0
-253.23746 -111.59614 612.0
-249.35207 -111.778496 613.0
-245.45264 -111.96083 614.0
-241.93195 -112.32553 616.0
-238.38321 -112.69022 618.0
-305.79538 -105.85226 559.0
-302.95496 -106.23097 561.0
-299.5535 -106.420334 562.0
-294.56 -106.04161 560.0
-263.9398 -114.94153 607.0
-260.11053 -115.1309 608.0
-256.2672 -115.32025 609.0
-252.40988 -115.50961 610.0
-248.53851 -115.698975 611.0
-244.65312 -115.88833 612.0
-241.14645 -116.267044 614.0
-237.61174 -116.645775 616.0
-304.7013 -109.37995 557.0
-301.8749 -109.772705 559.0
-299.0205 -110.16545 561.0
-295.612 -110.361824 562.0
-267.75507 -119.00225 606.0
-263.50497 -119.00225 606.0
-259.25488 -119.00225 606.0
-255.42561 -119.19862 607.0
-251.9961 -119.59136 609.0
-248.13174 -119.78774 610.0
-244.25337 -119.984116 611.0
-241.14645 -120.573235 614.0
-304.15427 -113.082985 556.0
-301.3349 -113.48977 558.0
-298.4875 -113.896545 560.0
-295.086 -114.099915 561.0
-275.34348 -122.84555 604.0
-270.65857 -122.642166 603.0
-266.87137 -122.84555 604.0
-262.20047 -122.642166 603.0
-258.39926 -122.84555 604.0
-255.0048 -123.25233 606.0
-251.5823 -123.659096 608.0
-247.72498 -123.86248 609.0
-244.25337 -124.26926 611.0
-233.76843 -130.37086 641.0
-229.27287 -130.37086 641.0
-224.42668 -130.16747 640.0
-220.2818 -130.37086 641.0
-303.06018 -116.5616 554.0
-300.25482 -116.9824 556.0
-297.95447 -117.6136 559.0
-294.56 -117.824 560.0
-273.06415 -126.0296 599.0
-269.312 -126.24 600.0
-264.66217 -126.0296 599.0
-261.33084 -126.4504 601.0
-257.54364 -126.6608 602.0
-254.16321 -127.0816 604.0
-250.75475 -127.5024 606.0
-246.50465 -127.5024 606.0
-239.35106 -132.9728 632.0
-236.03374 -133.604 635.0
-232.30966 -134.0248 637.0
-228.19984 -134.2352 638.0
-224.42668 -134.656 640.0
-220.2818 -134.8664 641.0
-215.78625 -134.8664 641.0
-301.41907 -119.79474 551.0
-299.17477 -120.44699 554.0
-296.88843 -121.09922 557.0
-293.508 -121.316635 558.0
-280.52634 -129.79575 597.0
-276.80225 -130.01317 598.0
-272.60828 -130.01317 598.0
-268.4143 -130.01317 598.0
-263.7785 -129.79575 597.0
-260.896 -130.448 600.0
-257.54364 -130.88283 602.0
-254.16321 -131.31764 604.0
-249.92717 -131.31764 604.0
-242.62628 -136.75299 629.0
-238.59361 -136.9704 630.0
-234.54692 -137.1878 631.0
-230.48619 -137.40523 632.0
-227.12682 -138.05746 635.0
-223.37468 -138.4923 637.0
-219.93814 -139.14453 640.0
-215.78625 -139.36194 641.0
-300.872 -123.43466 550.0
-298.63477 -124.10794 553.0
-295.82242 -124.556786 555.0
-292.98203 -125.005646 557.0
-283.2826 -133.30943 594.0
-279.11664 -133.30943 594.0
-274.9507 -133.30943 594.0
-270.78482 -133.30943 594.0
-267.5166 -133.75829 596.0
-263.7785 -133.98271 597.0
-260.46118 -134.43156 599.0
-257.1158 -134.88042 601.0
-253.32161 -135.10484 602.0
-249.45024 -140.04224 624.0
-245.46667 -140.26666 625.0
-242.24054 -140.93994 628.0
-237.83617 -140.93994 628.0
-233.80351 -141.16437 629.0
-230.1215 -141.61322 631.0
-226.05377 -141.83765 632.0
-223.024 -142.73535 636.0
-219.25082 -143.1842 638.0
-215.78625 -143.85748 641.0
-300.32498 -127.060555 549.0
-298.63477 -127.986305 553.0
-295.2894 -128.21776 554.0
-286.96457 -137.24391 593.0
-282.32877 -137.01247 592.0
-277.70697 -136.78102 591.0
-274.02496 -137.01247 592.0
-269.87308 -137.01247 592.0
-266.6189 -137.47536 594.0
-263.7785 -138.16966 597.0
-260.46118 -138.63255 599.0
-256.68802 -138.86398 600.0
-252.9008 -139.09543 601.0
-256.54773 -143.49278 620.0
-252.19948 -143.49278 620.0
-248.25096 -143.72423 621.0
-244.28844 -143.95567 622.0
-240.6976 -144.41855 624.0
-237.45746 -145.11287 627.0
-233.06009 -145.11287 627.0
-229.7568 -145.80719 630.0
-225.69608 -146.03862 631.0
-300.32498 -130.91089 549.0
-297.5547 -131.3878 551.0
-294.75638 -131.8647 553.0
-285.51282 -140.68748 590.0
-280.89804 -140.44902 589.0
-277.2371 -140.68748 590.0
-273.56207 -140.92593 591.0
-269.87308 -141.16438 592.0
-266.17004 -141.40283 593.0
-263.33664 -142.1182 596.0
-259.59152 -142.35664 597.0
-262.6774 -146.41037 614.0
-259.2128 -146.88727 616.0
-255.72017 -147.36418 618.0
-251.79271 -147.60263 619.0
-247.45143 -147.60263 619.0
-243.50294 -147.84108 620.0
-239.5404 -148.07953 621.0
-235.94257 -148.55644 623.0
-232.31668 -149.03334 625.0
-229.0274 -149.7487 628.0
-224.98073 -149.98717 629.0
-300.872 -135.00667 550.0
-298.09473 -135.49762 552.0
-291.79675 -143.84348 586.0
-288.66882 -144.33441 588.0
-284.54495 -144.33441 588.0
-280.42114 -144.33441 588.0
-276.76718 -144.57986 589.0
-273.0992 -144.82535 590.0
-269.87308 -145.31627 592.0
-266.17004 -145.56174 593.0
-262.01114 -145.56174 593.0
-266.11392 -150.22562 612.0
-262.24957 -150.47107 613.0
-257.9504 -150.47107 613.0
-254.4788 -150.962 615.0
-250.57239 -151.20747 616.0
-247.05168 -151.69841 618.0
-243.11018 -151.94388 619.0
-239.5404 -152.43481 621.0
-235.56386 -152.68027 622.0
-231.94498 -153.17122 624.0
-227.93333 -153.41667 625.0
-300.872 -138.864 550.0
-297.5547 -139.11649 551.0
-294.89664 -147.44833 584.0
-291.2988 -147.7008 585.0
-287.68695 -147.95328 586.0
-283.57715 -147.95328 586.0
-279.94424 -148.20576 587.0
-276.76718 -148.71072 589.0
-273.0992 -148.9632 590.0
-269.4172 -149.21568 591.0
-265.7212 -149.46817 592.0
-269.5224 -154.0128 610.0
-265.24426 -154.0128 610.0
-260.53833 -153.76033 609.0
-256.68802 -154.0128 610.0
-252.82367 -154.26529 611.0
-249.35207 -154.77025 613.0
-245.8524 -155.2752 615.0
-242.71745 -156.03265 618.0
-238.76894 -156.28513 619.0
-235.18513 -156.79008 621.0
-231.57327 -157.29504 623.0
-300.872 -142.72133 550.0
-297.5547 -142.98082 551.0
-302.05026 -151.02512 582.0
-297.45654 -150.76562 581.0
-293.88672 -151.02512 582.0
-290.30292 -151.2846 583.0
-286.21414 -151.2846 583.0
-283.0932 -151.8036 585.0
-279.46732 -152.0631 586.0
-276.29727 -152.58208 588.0
-272.63632 -152.84158 589.0
-269.4172 -153.36057 591.0
-272.00513 -157.25296 606.0
-268.1969 -157.51247 607.0
-263.9398 -157.51247 607.0
-259.6827 -157.51247 607.0
-255.8464 -157.77196 608.0
-252.40988 -158.29092 610.0
-248.9453 -158.80992 612.0
-245.45264 -159.3289 614.0
-241.53922 -159.5884 615.0
-237.61174 -159.8479 616.0
-234.42769 -160.62637 619.0
-224.42668 -166.07574 640.0
-220.2818 -166.33522 641.0
-301.41907 -146.84518 551.0
-297.01468 -146.57867 550.0
-306.48267 -153.24133 575.0
-303.502 -153.77434 577.0
-299.45535 -153.77434 577.0
-295.40863 -153.77434 577.0
-291.86688 -154.04085 578.0
-288.80908 -154.57387 580.0
-285.23227 -154.84038 581.0
-282.12537 -155.37338 583.0
-278.99042 -155.9064 585.0
-276.29727 -156.70592 588.0
-272.63632 -156.97243 589.0
-274.43173 -160.43701 602.0
-270.65857 -160.70352 603.0
-266.87137 -160.97002 604.0
-262.6353 -160.97002 604.0
-259.25488 -161.50304 606.0
-255.42561 -161.76955 607.0
-251.9961 -162.30255 609.0
-248.53851 -162.83557 611.0
-244.65312 -163.10208 612.0
-240.75372 -163.36859 613.0
-234.91862 -168.4322 632.0
-231.58028 -169.23174 635.0
-227.48448 -169.49823 636.0
-223.37468 -169.76474 637.0
-219.25082 -170.03125 638.0
-214.77634 -170.03125 638.0
-210.3018 -170.03125 638.0
-311.26578 -155.63287 569.0
-307.81522 -155.9064 570.0
-304.35062 -156.17992 571.0
-301.398 -156.72696 573.0
-297.89838 -157.00047 574.0
-294.89667 -157.54752 576.0
-291.36194 -157.82103 577.0
-288.31113 -158.36807 579.0
-285.23227 -158.91512 581.0
-281.64145 -159.18863 582.0
-278.99042 -160.0092 585.0
-276.29727 -160.82976 588.0
-275.87646 -163.01791 596.0
-273.06415 -163.83847 599.0
-269.76086 -164.38551 601.0
-265.54587 -164.38551 601.0
-262.20047 -164.93256 603.0
-258.39926 -165.20607 604.0
-255.42561 -166.02664 607.0
-251.16852 -166.02664 607.0
-248.13174 -166.8472 610.0
-244.25337 -167.12071 611.0
-238.21489 -172.04407 629.0
-234.1752 -172.3176 630.0
-230.1215 -172.59111 631.0
-226.05377 -172.86464 632.0
-221.62134 -172.86464 632.0
-218.21988 -173.6852 635.0
-214.10306 -173.95872 636.0
-209.64256 -173.95872 636.0
-310.71872 -159.34293 568.0
-306.73517 -159.34293 568.0
-303.28458 -159.62346 569.0
-299.82 -159.90399 570.0
-297.3794 -160.74559 573.0
-293.8727 -161.02612 574.0
-290.85696 -161.58719 576.0
-287.81317 -162.14825 578.0
-284.74133 -162.70934 580.0
-281.15753 -162.98985 581.0
-278.51352 -163.83145 584.0
-276.29727 -164.95358 588.0
-274.48785 -166.35626 593.0
-272.1524 -167.4784 597.0
-268.86316 -168.03946 599.0
-265.104 -168.31999 600.0
-261.33084 -168.60052 601.0
-257.97147 -169.16159 603.0
-255.0048 -170.00319 606.0
-251.16852 -170.28372 607.0
-248.13174 -171.12534 610.0
-247.45143 -173.65013 619.0
-244.28844 -174.49173 622.0
-240.31187 -174.77226 623.0
-237.45746 -175.8944 627.0
-233.43181 -176.17493 628.0
-229.3921 -176.45546 629.0
-225.33841 -176.736 630.0
-221.27068 -177.01653 631.0
-217.18892 -177.29706 632.0
-212.7565 -177.29706 632.0
-305.24832 -160.45102 558.0
-304.57504 -162.1763 564.0
-302.21854 -163.03896 567.0
-299.294 -163.61403 569.0
-296.8604 -164.47668 572.0
-293.8727 -165.05177 574.0
-290.85696 -165.62688 576.0
-287.31522 -165.91441 577.0
-283.7595 -166.20197 578.0
-281.15753 -167.0646 581.0
-278.03662 -167.6397 583.0
-275.8274 -168.78989 587.0
-274.02496 -170.22762 592.0
-271.24066 -171.09026 595.0
-268.4143 -171.9529 598.0
-265.104 -172.52798 600.0
-260.896 -172.52798 600.0
-257.1158 -172.81552 601.0
-253.74242 -173.39062 603.0
-255.72017 -177.70383 618.0
-251.38594 -177.70383 618.0
-247.45143 -177.99138 619.0
-243.89568 -178.56647 621.0
-239.5404 -178.56647 621.0
-236.32129 -179.42911 624.0
-233.06009 -180.29173 627.0
-228.66272 -180.29173 627.0
-224.62305 -180.5793 628.0
-220.92001 -181.15439 630.0
-217.18892 -181.72948 632.0
-303.6072 -163.48082 555.0
-302.41495 -164.95361 560.0
-300.08652 -165.8373 563.0
-298.768 -167.31009 568.0
-296.3414 -168.19377 571.0
-293.36072 -168.7829 573.0
-290.35202 -169.37201 575.0
-287.31522 -169.96114 577.0
-283.7595 -170.25569 578.0
-281.15753 -171.13937 581.0
-278.03662 -171.7285 583.0
-275.8274 -172.90672 587.0
-272.63632 -173.49585 589.0
-270.32895 -174.6741 593.0
-267.96545 -175.85233 597.0
-264.66217 -176.44145 599.0
-260.896 -176.73601 600.0
-262.24957 -180.56529 613.0
-258.37122 -180.85985 614.0
-254.06503 -180.85985 614.0
-249.75885 -180.85985 614.0
-245.8524 -181.15442 615.0
-243.11018 -182.33264 619.0
-238.76894 -182.33264 619.0
-234.80641 -182.62721 620.0
-231.57327 -183.5109 623.0
-227.93333 -184.1 625.0
-224.26537 -184.68913 627.0
-220.21867 -184.98369 628.0
-304.15427 -167.67477 556.0
-302.41495 -168.88107 560.0
-300.61954 -170.08737 564.0
-298.768 -171.29366 568.0
-296.3414 -172.19838 571.0
-293.36072 -172.80153 573.0
-290.85696 -173.70625 576.0
-287.31522 -174.00783 577.0
-284.2504 -174.61096 579.0
-281.15753 -175.21411 581.0
-278.51352 -176.11884 584.0
-275.3575 -176.72197 586.0
-272.63632 -177.62671 589.0
-269.87308 -178.53142 592.0
-266.6189 -179.13457 594.0
-263.7785 -180.03928 597.0
-264.80945 -183.65817 609.0
-260.53833 -183.65817 609.0
-256.68802 -183.95975 610.0
-252.82367 -184.26132 611.0
-249.35207 -184.86446 613.0
-245.45264 -185.16603 614.0
-241.93195 -185.76918 616.0
-238.38321 -186.37233 618.0
-234.42769 -186.6739 619.0
-230.82985 -187.27705 621.0
-227.20395 -187.8802 623.0
-223.55 -188.48334 625.0
-304.15427 -171.57419 556.0
-302.95496 -173.11711 561.0
-300.08652 -173.7343 563.0
-299.294 -175.58582 569.0
-296.8604 -176.51158 572.0
-293.8727 -177.12875 574.0
-290.85696 -177.74593 576.0
-287.31522 -178.0545 577.0
-284.74133 -178.98027 580.0
-281.15753 -179.28886 581.0
-278.51352 -180.21461 584.0
-274.8876 -180.5232 585.0
-272.17346 -181.44896 588.0
-269.87308 -182.6833 592.0
-266.6189 -183.30048 594.0
-266.42953 -186.07776 603.0
-262.6353 -186.38635 604.0
-259.25488 -187.00352 606.0
-255.8464 -187.6207 608.0
-251.9961 -187.92928 609.0
-248.53851 -188.54646 611.0
-245.05287 -189.16364 613.0
-241.14645 -189.47221 614.0
-237.61174 -190.08939 616.0
-234.42769 -191.01515 619.0
-230.82985 -191.63232 621.0
-304.7013 -175.7892 557.0
-302.95496 -177.0516 561.0
-300.08652 -177.6828 563.0
-299.294 -179.5764 569.0
-296.8604 -180.5232 572.0
-293.8727 -181.1544 574.0
-290.35202 -181.47 575.0
-286.8173 -181.7856 576.0
-284.74133 -183.048 580.0
-281.64145 -183.6792 582.0
-278.51352 -184.3104 584.0
-274.4177 -184.3104 584.0
-272.17346 -185.5728 588.0
-269.4172 -186.5196 591.0
-267.5166 -188.0976 596.0
-265.54587 -189.6756 601.0
-262.20047 -190.3068 603.0
-258.39926 -190.6224 604.0
-255.0048 -191.2536 606.0
-251.16852 -191.5692 607.0
-247.72498 -192.2004 609.0
-243.8536 -192.516 610.0
-240.75372 -193.4628 613.0
-236.84027 -193.7784 614.0
-304.7013 -179.69562 557.0
-303.495 -181.3087 562.0
-301.15256 -182.27654 565.0
-299.294 -183.56699 569.0
-296.8604 -184.53482 572.0
-294.38467 -185.50266 575.0
-290.85696 -185.82527 576.0
-287.31522 -186.14789 577.0
-284.74133 -187.11572 580.0
-281.15753 -187.43834 581.0
-278.03662 -188.08356 583.0
-274.4177 -188.40619 584.0
-271.24768 -189.0514 586.0
-269.4172 -190.66447 591.0
-267.5166 -192.27754 596.0
-264.66217 -193.24539 599.0
-261.33084 -193.89061 601.0
-257.97147 -194.53583 603.0
-254.16321 -194.85844 604.0
-250.75475 -195.50368 606.0
-247.3182 -196.14891 608.0
-243.8536 -196.79413 610.0
-305.79538 -184.26129 559.0
-304.03503 -185.57982 563.0
-301.68558 -186.56868 566.0
-299.294 -187.55757 569.0
-296.8604 -188.54645 572.0
-293.8727 -189.20569 574.0
-290.85696 -189.86496 576.0
-287.31522 -190.19458 577.0
-284.2504 -190.85384 579.0
-281.15753 -191.51308 581.0
-277.5597 -191.84271 582.0
-274.4177 -192.50197 584.0
-271.71057 -193.49084 587.0
-269.87308 -195.13898 592.0
-267.5166 -196.45749 596.0
-264.22034 -197.11674 598.0
-260.896 -197.77599 600.0
-257.1158 -198.10562 601.0
-253.32161 -198.43524 602.0
-249.92717 -199.0945 604.0
-245.69112 -199.0945 604.0
-306.3424 -188.51839 560.0
-304.03503 -189.5283 563.0
-301.15256 -190.20158 565.0
-298.768 -191.2115 568.0
-296.8604 -192.55807 572.0
-293.36072 -192.8947 573.0
-290.85696 -193.90463 576.0
-287.31522 -194.24127 577.0
-284.2504 -194.91455 579.0
-281.15753 -195.58783 581.0
-277.5597 -195.92447 582.0
-274.4177 -196.59775 584.0
-272.17346 -197.9443 588.0
-269.4172 -198.95422 591.0
-267.06775 -200.30078 595.0
-263.33664 -200.63742 596.0
-259.59152 -200.97408 597.0
-255.83238 -201.3107 598.0
-252.48001 -201.984 600.0
-249.09958 -202.65727 602.0
-305.79538 -192.10222 559.0
-305.11508 -194.16414 565.0
-301.15256 -194.16414 565.0
-298.768 -195.19511 568.0
-296.8604 -196.56972 572.0
-293.36072 -196.91338 573.0
-290.35202 -197.60068 575.0
-287.31522 -198.288 577.0
-284.2504 -198.9753 579.0
-281.15753 -199.6626 581.0
-277.0828 -199.6626 581.0
-273.9478 -200.34991 583.0
-271.24768 -201.38087 586.0
-268.96133 -202.75548 590.0
-266.17004 -203.78644 593.0
-262.45297 -204.1301 594.0
-258.72186 -204.47374 595.0
-254.97675 -204.8174 596.0
-305.79538 -196.02267 559.0
-304.57504 -197.77602 564.0
-301.15256 -198.12668 565.0
-298.242 -198.82802 567.0
-296.3414 -200.23067 571.0
-292.84875 -200.58134 572.0
-289.84705 -201.28267 574.0
-286.8173 -201.98401 576.0
-283.26855 -202.33467 577.0
-280.1897 -203.03601 579.0
-276.60587 -203.38667 580.0
-273.47794 -204.08801 582.0
-270.32193 -204.78934 584.0
-268.50546 -206.54266 589.0
-265.7212 -207.59467 592.0
-261.5693 -207.59467 592.0
-257.8522 -207.94534 593.0
-254.12112 -208.29602 594.0
-243.45384 -213.55602 609.0
-239.96822 -214.25734 611.0
-235.29735 -213.90668 610.0
-231.39793 -214.25734 611.0
-228.22792 -215.30934 614.0
-224.2864 -215.66 615.0
-221.04625 -216.712 618.0
-306.3424 -200.3008 560.0
-303.495 -201.01616 562.0
-301.15256 -202.0892 565.0
-297.716 -202.44688 566.0
-295.82242 -203.8776 570.0
-292.3368 -204.23528 571.0
-289.3421 -204.95065 573.0
-286.31934 -205.666 575.0
-282.77762 -206.02368 576.0
-279.70578 -206.73904 578.0
-276.60587 -207.4544 580.0
-273.47794 -208.16977 582.0
-269.85904 -208.52745 583.0
-267.59375 -209.95816 587.0
-265.27234 -211.38889 591.0
-261.5693 -211.74657 592.0
-258.72186 -212.8196 595.0
-256.2602 -214.25034 599.0
-252.48001 -214.608 600.0
-249.09958 -215.32336 602.0
-245.69112 -216.03873 604.0
-242.25456 -216.75409 606.0
-238.78998 -217.46944 608.0
-234.9116 -217.82713 609.0
-231.01921 -218.1848 610.0
-227.11278 -218.5425 611.0
-223.557 -219.25783 613.0
-219.61552 -219.61552 614.0
-214.95868 -219.25783 613.0
-210.6595 -219.25783 613.0
-206.69698 -219.61552 614.0
-305.79538 -203.86357 559.0
-303.495 -204.95766 562.0
-300.61954 -205.68704 564.0
-297.19 -206.05173 565.0
-294.78445 -207.14581 568.0
-291.8248 -207.8752 570.0
-288.83713 -208.60458 572.0
-285.82138 -209.33398 574.0
-282.77762 -210.06337 576.0
-279.22186 -210.42805 577.0
-275.17517 -210.42805 577.0
-273.00803 -211.88683 581.0
-269.85904 -212.61621 583.0
-267.59375 -214.07498 587.0
-264.37463 -214.80438 589.0
-262.01114 -216.26315 593.0
-258.28705 -216.62784 594.0
-255.40457 -217.72192 597.0
-251.63841 -218.08661 598.0
-248.6858 -219.18071 601.0
-244.47078 -219.18071 601.0
-241.05528 -219.91006 603.0
-237.219 -220.27478 604.0
-233.75441 -221.00417 606.0
-229.88306 -221.36885 607.0
-226.36938 -222.09824 609.0
-222.46294 -222.46294 610.0
-218.54248 -222.82762 611.0
-214.608 -223.19234 612.0
-210.6595 -223.557 613.0
-206.69698 -223.92172 614.0
-203.70927 -225.38046 618.0
-304.7013 -207.04062 557.0
-301.8749 -207.78403 559.0
-299.5535 -208.89914 562.0
-297.19 -210.01427 565.0
-293.22748 -210.01427 565.0
-290.80084 -211.1294 568.0
-287.8272 -211.8728 570.0
-284.8255 -212.61621 572.0
-281.79575 -213.35962 574.0
-278.254 -213.73132 575.0
-274.69824 -214.10304 576.0
-272.53815 -215.58986 580.0
-270.32193 -217.07668 584.0
-267.59375 -218.19182 587.0
-264.8235 -219.30695 590.0
-261.5693 -220.05035 592.0
-257.8522 -220.42204 593.0
-254.54895 -221.16545 595.0
-251.2176 -221.90887 597.0
-248.272 -223.024 600.0
-244.06401 -223.024 600.0
-240.25577 -223.39569 601.0
-236.82625 -224.13913 603.0
-232.98294 -224.51082 604.0
-229.50433 -225.25424 606.0
-225.62596 -225.62596 607.0
-222.09824 -226.36937 609.0
-218.18481 -226.74106 610.0
-213.90668 -226.74106 610.0
-304.15427 -210.56831 556.0
-301.3349 -211.32576 558.0
-299.0205 -212.46191 561.0
-296.138 -213.21935 563.0
-293.22748 -213.9768 565.0
-289.77695 -214.35551 566.0
-287.32224 -215.49167 569.0
-284.32755 -216.2491 571.0
-280.81387 -216.62784 572.0
-277.7701 -217.38527 574.0
-274.69824 -218.1427 576.0
-272.53815 -219.6576 580.0
-270.32193 -221.17247 584.0
-267.13788 -221.9299 586.0
-264.37463 -223.06607 589.0
-261.12744 -223.8235 591.0
-257.8522 -224.58096 593.0
-254.54895 -225.3384 595.0
-250.79681 -225.7171 596.0
-247.44443 -226.47456 598.0
-243.65724 -226.85327 599.0
-239.856 -227.232 600.0
-236.04074 -227.6107 601.0
-232.21147 -227.98944 602.0
-228.7469 -228.74687 604.0
-225.25426 -229.5043 606.0
-221.36885 -229.88304 607.0
-217.82712 -230.64047 609.0
-213.90668 -231.0192 610.0
-303.06018 -213.69626 554.0
-300.25482 -214.46773 556.0
-297.95447 -215.62492 559.0
-295.612 -216.78212 562.0
-293.22748 -217.93932 565.0
-289.26495 -217.93932 565.0
-286.8173 -219.09651 568.0
-283.82962 -219.868 570.0
-280.81387 -220.63947 572.0
-277.7701 -221.41092 574.0
-275.17517 -222.56812 577.0
-272.53815 -223.72531 580.0
-270.32193 -225.26826 584.0
-266.682 -225.654 585.0
-263.02808 -226.03972 586.0
-260.6856 -227.58266 590.0
-256.98257 -227.9684 591.0
-253.69331 -228.73985 593.0
-249.53441 -228.73985 593.0
-247.03065 -230.2828 597.0
-243.65724 -231.05426 599.0
-239.856 -231.44 600.0
-235.64801 -231.44 600.0
-232.21147 -232.21146 602.0
-227.98946 -232.21146 602.0
-303.06018 -217.58165 554.0
-299.7148 -217.97438 555.0
-296.88843 -218.75989 557.0
-294.56 -219.93811 560.0
-292.7085 -221.50911 564.0
-289.26495 -221.90186 565.0
-286.31232 -222.68733 567.0
-283.33167 -223.47284 569.0
-280.81387 -224.65108 572.0
-277.7701 -225.43657 574.0
-275.17517 -226.61482 577.0
-272.53815 -227.79306 580.0
-269.85904 -228.9713 583.0
-266.22614 -229.36404 584.0
-262.13037 -229.36404 584.0
-256.1129 -231.32776 589.0
-301.9661 -220.66753 552.0
-299.17477 -221.46706 554.0
-296.35544 -222.26657 556.0
-294.034 -223.46587 559.0
-291.67053 -224.66513 562.0
-288.753 -225.46466 564.0
-285.80737 -226.26416 566.0
-282.8337 -227.06369 568.0
-280.32294 -228.26297 571.0
-277.28616 -229.0625 573.0
-275.17517 -230.66153 577.0
-272.06824 -231.46106 579.0
-268.4704 -231.8608 580.0
-301.41907 -224.13213 551.0
-299.17477 -225.35242 554.0
-295.2894 -225.35242 554.0
-293.508 -226.97954 558.0
-291.15152 -228.19983 561.0
-288.753 -229.42017 564.0
-285.80737 -230.23372 566.0
-282.8337 -231.04727 568.0
-279.832 -231.8608 570.0
-275.17517 -234.7082 577.0
-271.59836 -235.11499 578.0
-300.32498 -227.1689 549.0
-297.5547 -227.99644 551.0
-295.2894 -229.23781 554.0
-292.45602 -230.06538 556.0
-291.15152 -232.13432 561.0
-289.26495 -233.78946 565.0
-285.80737 -234.20325 566.0

