ply
format ascii 1.0
comment made by @arthurmuchir
element vertex 930
property float x
property float y
property float z
end_header
-143.66112 -115.72701 569.0
-139.17961 -115.32025 567.0
-135.4415 -115.523636 568.0
-132.15225 -116.13379 571.0
-155.63289 -119.7176 569.0
-151.64232 -119.7176 569.0
-147.91121 -119.928 570.0
-141.89377 -118.2448 562.0
-137.95227 -118.2448 562.0
-134.72614 -118.876 565.0
-131.45793 -119.5072 568.0
-127.923195 -119.928 570.0
-164.4767 -124.36042 572.0
-160.18454 -124.14301 571.0
-155.63289 -123.70819 569.0
-151.37581 -123.49076 568.0
-144.53778 -121.09922 557.0
-140.63136 -121.09922 557.0
-137.21587 -121.53405 559.0
-134.01079 -122.186295 562.0
-130.99504 -123.05594 566.0
-127.69878 -123.70819 569.0
-168.19376 -128.14763 571.0
-164.18915 -128.14763 571.0
-160.18454 -128.14763 571.0
-155.35936 -127.47434 568.0
-151.64232 -127.69876 569.0
-143.7593 -124.33237 554.0
-139.11649 -123.65908 551.0
-135.98854 -124.33237 554.0
-132.58006 -124.78123 556.0
-129.60641 -125.67893 560.0
-127.69878 -127.69876 569.0
-124.36043 -128.37204 572.0
-167.67479 -128.68063 556.0
-163.77536 -128.68063 556.0
-159.87595 -128.68063 556.0
-156.25706 -128.91206 557.0
-152.62416 -129.14351 558.0
-145.24614 -126.13479 545.0
-141.42386 -126.13479 545.0
-138.10657 -126.59767 547.0
-135.25214 -127.52344 551.0
-132.10316 -128.21776 554.0
-129.60641 -129.60638 560.0
-126.57664 -130.53215 564.0
-123.70818 -131.68935 569.0
-119.717606 -131.68935 569.0
-115.72703 -131.68935 569.0
-177.43735 -131.14934 550.0
-174.21121 -131.62625 552.0
-170.64842 -131.8647 553.0
-167.07164 -132.10315 554.0
-163.18623 -132.10315 554.0
-159.30086 -132.10315 554.0
-155.696 -132.34161 555.0
-152.07713 -132.58008 556.0
-143.9136 -128.76482 540.0
-140.3859 -129.00327 541.0
-137.34912 -129.71863 544.0
-134.02481 -130.19553 546.0
-131.38779 -131.3878 551.0
-128.68065 -132.58008 556.0
-125.90336 -133.77232 561.0
-122.186295 -134.01079 562.0
-118.6656 -134.4877 564.0
-115.320244 -135.20305 567.0
-111.932816 -135.91841 570.0
-108.31392 -136.39532 572.0
-188.32204 -134.51575 548.0
-184.47874 -134.51575 548.0
-180.6354 -134.51575 548.0
-176.79211 -134.51575 548.0
-173.58 -135.00667 550.0
-170.03127 -135.25214 551.0
-166.16692 -135.25214 551.0
-162.59712 -135.49762 552.0
-159.01332 -135.74307 553.0
-155.41547 -135.98854 554.0
-151.8036 -136.23401 555.0
-143.11409 -131.81561 537.0
-139.86691 -132.30655 539.0
-136.3392 -132.55202 540.0
-133.77934 -133.77934 545.0
-131.62625 -135.49762 552.0
-128.21777 -135.98854 554.0
-124.55679 -136.23401 555.0
-121.09923 -136.72495 557.0
-117.824005 -137.46135 560.0
-114.91347 -138.68867 565.0
-111.736435 -139.67055 569.0
-108.12456 -140.16147 571.0
-187.63474 -137.85408 546.0
-183.80545 -137.85408 546.0
-179.97617 -137.85408 546.0
-176.14688 -137.85408 546.0
-172.9488 -138.35905 548.0
-169.72267 -138.864 550.0
-165.86534 -138.864 550.0
-162.00801 -138.864 550.0
-158.72577 -139.36897 552.0
-155.41547 -139.87393 554.0
-145.23914 -134.06688 531.0
-142.04807 -134.57185 533.0
-138.82893 -135.0768 535.0
-135.58176 -135.58177 537.0
-134.02481 -137.85408 546.0
-130.67244 -138.35905 548.0
-127.06057 -138.61153 549.0
-123.43466 -138.864 550.0
-120.229576 -139.62144 553.0
-116.98241 -140.37888 556.0
-114.50671 -142.14624 563.0
-110.95094 -142.6512 565.0
-107.935196 -143.9136 570.0
-190.06134 -140.64539 542.0
-186.60376 -140.90488 543.0
-182.79553 -140.90488 543.0
-179.3169 -141.16438 544.0
-175.82428 -141.42387 545.0
-172.63321 -141.94286 547.0
-169.1055 -142.20235 548.0
-165.56378 -142.46185 549.0
-162.00801 -142.72133 550.0
-158.72577 -143.24031 552.0
-155.41547 -143.75931 554.0
-144.9656 -137.53146 530.0
-141.51505 -137.79097 531.0
-138.30994 -138.30995 533.0
-134.82433 -138.56944 534.0
-133.2884 -140.90488 543.0
-129.95708 -141.42387 545.0
-126.13481 -141.42387 545.0
-122.76138 -141.94286 547.0
-119.57734 -142.72133 550.0
-116.56161 -143.75931 554.0
-114.91347 -146.61372 565.0
-110.95094 -146.61372 565.0
-193.86256 -144.44661 542.0
-189.36 -143.9136 540.0
-185.5728 -143.9136 540.0
-182.12225 -144.1801 541.0
-178.65765 -144.44661 542.0
-175.17905 -144.71312 543.0
-172.31761 -145.51263 546.0
-168.79692 -145.77914 547.0
-165.56378 -146.31215 549.0
-162.30257 -146.84518 551.0
-159.01332 -147.37819 553.0
-155.41547 -147.6447 554.0
-144.9656 -141.24854 530.0
-141.24855 -141.24854 530.0
-138.05045 -141.78154 532.0
-135.32928 -142.84758 536.0
-132.552 -143.9136 540.0
-129.00327 -144.1801 541.0
-125.671936 -144.71312 543.0
-122.536964 -145.51263 546.0
-119.35992 -146.31215 549.0
-116.351204 -147.37819 553.0
-113.48977 -148.71072 558.0
-110.95094 -150.57628 565.0
-192.43185 -147.15375 538.0
-188.30801 -146.88023 537.0
-184.54185 -146.88023 537.0
-181.11234 -147.15375 538.0
-177.99841 -147.7008 540.0
-174.53381 -147.97432 541.0
-171.6864 -148.79488 544.0
-168.48834 -149.34192 546.0
-165.56378 -150.16248 549.0
-162.89168 -151.25655 553.0
-159.30086 -151.53008 554.0
-159.34294 -155.35936 568.0
-155.35936 -155.35936 568.0
-141.24855 -144.9656 530.0
-138.56944 -146.05968 534.0
-135.32928 -146.60672 536.0
-132.06107 -147.15375 538.0
-128.7648 -147.7008 540.0
-125.209045 -147.97432 541.0
-122.31253 -149.0684 545.0
-119.14251 -149.88895 548.0
-116.1408 -150.98303 552.0
-113.08299 -152.07712 556.0
-110.75457 -154.26527 564.0
-106.988396 -154.5388 565.0
-85.282135 -166.30016 608.0
-81.15129 -166.57367 609.0
-77.00641 -166.8472 610.0
-196.20502 -150.92693 538.0
-191.71648 -150.36586 536.0
-187.60667 -150.08533 535.0
-184.1982 -150.36586 536.0
-180.7757 -150.6464 537.0
-177.00952 -150.6464 537.0
-174.21121 -151.48799 540.0
-171.3708 -152.32959 543.0
-168.48834 -153.17119 546.0
-165.2622 -153.73225 548.0
-163.18623 -155.41545 554.0
-160.1635 -156.25706 557.0
-158.50134 -158.50133 565.0
-155.35936 -159.34293 568.0
-151.64232 -159.62346 569.0
-138.56944 -149.8048 534.0
-134.82433 -149.8048 534.0
-131.8156 -150.6464 537.0
-128.52635 -151.20746 539.0
-124.977615 -151.48799 540.0
-121.63925 -152.04906 542.0
-118.27285 -152.61012 544.0
-115.088806 -153.45174 547.0
-111.86267 -154.29333 550.0
-109.96908 -157.09866 560.0
-106.79904 -158.2208 564.0
-103.57291 -159.34293 568.0
-92.730286 -168.60052 601.0
-88.66256 -168.88106 602.0
-84.72107 -169.44212 604.0
-81.018036 -170.56425 608.0
-76.880165 -170.84479 609.0
-203.75136 -154.70009 538.0
-199.60649 -154.41255 537.0
-194.74623 -153.54991 534.0
-191.00111 -153.54991 534.0
-187.25601 -153.54991 534.0
-183.5109 -153.54991 534.0
-179.76578 -153.54991 534.0
-176.6799 -154.125 536.0
-174.21121 -155.27519 540.0
-170.73961 -155.56273 541.0
-167.87115 -156.42537 544.0
-165.2622 -157.57556 548.0
-162.59712 -158.72575 552.0
-162.46387 -162.46385 565.0
-158.50134 -162.46385 565.0
-155.35936 -163.32649 568.0
-151.64232 -163.61403 569.0
-138.05045 -152.97481 532.0
-134.57184 -153.26236 533.0
-131.32468 -153.83746 535.0
-128.04945 -154.41255 537.0
-124.977615 -155.27519 540.0
-120.96597 -154.98764 539.0
-117.403206 -155.27519 540.0
-114.4576 -156.42537 544.0
-111.25252 -157.28801 547.0
-108.79083 -159.30084 554.0
-99.98209 -170.8027 594.0
-96.4614 -171.9529 598.0
-92.576 -172.52798 600.0
-88.51528 -172.81552 601.0
-84.44054 -173.10309 602.0
-80.751526 -174.25327 606.0
-76.75394 -174.82837 608.0
-202.2365 -157.29504 534.0
-198.49138 -157.29504 534.0
-194.38155 -157.00049 533.0
-190.28577 -156.70593 532.0
-186.55467 -156.70593 532.0
-183.16724 -157.00049 533.0
-179.76578 -157.29504 534.0
-176.6799 -157.88417 536.0
-173.88858 -158.76785 539.0
-170.73961 -159.35696 541.0
-167.87115 -160.24065 544.0
-165.2622 -161.4189 548.0
-162.89168 -162.8917 553.0
-161.60123 -165.54272 562.0
-158.78188 -166.72096 566.0
-155.35936 -167.31009 568.0
-151.64232 -167.60464 569.0
-137.53146 -156.1168 530.0
-134.06688 -156.41136 531.0
-131.07921 -157.29504 534.0
-127.33409 -157.29504 534.0
-122.43177 -155.82225 529.0
-118.94613 -156.1168 530.0
-116.75096 -158.17873 537.0
-113.616005 -159.06241 540.0
-111.049126 -160.82976 546.0
-107.58453 -173.79042 590.0
-103.79734 -174.37953 592.0
-99.81377 -174.6741 593.0
-96.13879 -175.55779 596.0
-92.2674 -176.1469 598.0
-88.368004 -176.73601 600.0
-84.44054 -177.32513 602.0
-80.48502 -177.91425 604.0
-205.59587 -160.73859 533.0
-201.85776 -160.73859 533.0
-198.11967 -160.73859 533.0
-193.65216 -160.13545 531.0
-189.5704 -159.83388 530.0
-185.85333 -159.83388 530.0
-182.82358 -160.43703 532.0
-179.42914 -160.73859 533.0
-176.02063 -161.04016 534.0
-173.88858 -162.54803 539.0
-170.73961 -163.15118 541.0
-167.87115 -164.05591 544.0
-164.96063 -164.96062 547.0
-165.54272 -169.48422 562.0
-161.88878 -169.78578 563.0
-158.78188 -170.69052 566.0
-155.35936 -171.29366 568.0
-151.64232 -171.59523 569.0
-137.53146 -159.83388 530.0
-133.8144 -159.83388 530.0
-131.07921 -161.04016 534.0
-124.47265 -157.42128 522.0
-121.50601 -158.32602 525.0
-118.27285 -158.92915 527.0
-115.663895 -160.43703 532.0
-113.195206 -162.24646 538.0
-111.15432 -177.02356 587.0
-107.40218 -177.62671 589.0
-103.622 -178.22984 591.0
-99.64545 -178.53142 592.0
-95.97748 -179.43614 595.0
-92.11311 -180.03928 597.0
-88.368004 -180.94402 600.0
-84.30027 -181.24557 601.0
-205.98161 -164.78528 534.0
-201.10034 -163.85951 531.0
-196.63284 -163.24236 529.0
-192.92276 -163.24236 529.0
-189.5704 -163.55095 530.0
-185.85333 -163.55095 530.0
-182.13628 -163.55095 530.0
-179.0925 -164.1681 532.0
-176.02063 -164.78528 534.0
-173.56598 -166.01964 538.0
-170.73961 -166.94539 541.0
-168.17973 -168.17975 545.0
-164.65904 -168.48831 546.0
-165.24817 -173.11711 561.0
-161.88878 -173.7343 563.0
-158.50134 -174.35147 565.0
-155.35936 -175.27724 568.0
-151.1093 -174.96864 567.0
-147.39221 -175.27724 568.0
-143.40865 -175.27724 568.0
-128.37907 -161.39084 523.0
-124.23419 -160.77367 521.0
-121.04314 -161.39084 523.0
-117.824 -162.008 525.0
-115.88131 -164.4767 533.0
-112.77441 -165.40247 536.0
-114.68204 -180.21461 584.0
-110.7756 -180.5232 585.0
-107.21984 -181.44896 588.0
-103.622 -182.37473 591.0
-99.64545 -182.6833 592.0
-95.97748 -183.60907 595.0
-91.95882 -183.91766 596.0
-210.11948 -168.846 535.0
-205.98161 -168.5304 534.0
-200.7216 -167.268 530.0
-196.26114 -166.6368 528.0
-192.92276 -166.9524 529.0
-189.21272 -166.9524 529.0
-185.50267 -166.9524 529.0
-182.13628 -167.268 530.0
-179.0925 -167.8992 532.0
-176.02063 -168.5304 534.0
-173.56598 -169.7928 538.0
-171.0552 -171.0552 542.0
-168.17973 -172.002 545.0
-168.57951 -176.4204 559.0
-165.24817 -177.0516 561.0
-161.88878 -177.6828 563.0
-158.50134 -178.314 565.0
-154.5388 -178.314 565.0
-150.84279 -178.6296 566.0
-146.87323 -178.6296 566.0
-143.15616 -178.9452 567.0
-139.17961 -178.9452 567.0
-124.23419 -164.4276 521.0
-120.580246 -164.4276 521.0
-117.59957 -165.3744 524.0
-115.44648 -167.5836 531.0
-121.4008 -182.1012 577.0
-117.760895 -182.7324 579.0
-114.092926 -183.3636 581.0
-110.7756 -184.626 585.0
-107.03749 -185.2572 587.0
-103.44667 -186.204 590.0
-99.64545 -186.8352 592.0
-96.13879 -188.0976 596.0
-221.28471 -175.50165 544.0
-213.47183 -172.27551 534.0
-209.72672 -172.27551 534.0
-205.21014 -171.6303 532.0
-200.7216 -170.98506 530.0
-196.63284 -170.66245 529.0
-192.55807 -170.33983 528.0
-189.21272 -170.66245 529.0
-185.50267 -170.66245 529.0
-182.13628 -170.98506 530.0
-179.0925 -171.6303 532.0
-176.02063 -172.27551 534.0
-173.56598 -173.56596 538.0
-171.0552 -174.85643 542.0
-168.17973 -175.82426 545.0
-167.3732 -179.0504 555.0
-164.36447 -180.01823 558.0
-161.31367 -180.98608 561.0
-157.65974 -181.3087 562.0
-154.26529 -181.95392 564.0
-150.30978 -181.95392 564.0
-146.61374 -182.27654 565.0
-142.6512 -182.27654 565.0
-138.68867 -182.27654 565.0
-134.72614 -182.27654 565.0
-131.45793 -183.24437 568.0
-127.923195 -183.8896 570.0
-124.36043 -184.53482 572.0
-121.4008 -186.14789 577.0
-117.760895 -186.79312 579.0
-114.28929 -187.76096 582.0
-110.58624 -188.40619 584.0
-246.16801 -177.99838 540.0
-242.82967 -178.32802 541.0
-239.4773 -178.65765 542.0
-223.44481 -177.99838 540.0
-218.84407 -177.33914 538.0
-213.47183 -176.02063 534.0
-209.33398 -175.69101 533.0
-204.43867 -174.70213 530.0
-200.3429 -174.37251 529.0
-196.63284 -174.37251 529.0
-192.55807 -174.04288 528.0
-189.21272 -174.37251 529.0
-185.50267 -174.37251 529.0
-181.79263 -174.37251 529.0
-179.0925 -175.36137 532.0
-176.02063 -176.02063 534.0
-173.88858 -177.66876 539.0
-171.3708 -178.98727 543.0
-169.4141 -180.96504 549.0
-167.07164 -182.61316 554.0
-163.77536 -183.27243 556.0
-160.1635 -183.60205 557.0
-156.81815 -184.26129 559.0
-153.44473 -184.92055 561.0
-149.51025 -184.92055 561.0
-145.83525 -185.25018 562.0
-142.6512 -186.23906 565.0
-138.68867 -186.23906 565.0
-134.72614 -186.23906 565.0
-131.22649 -186.89832 567.0
-127.69878 -187.55757 569.0
-124.36043 -188.54645 572.0
-121.19041 -189.86496 576.0
-117.760895 -190.85384 579.0
-250.376 -176.736 525.0
-247.1639 -177.07263 526.0
-243.47488 -177.07263 526.0
-239.78587 -177.07263 526.0
-243.72737 -182.7955 543.0
-239.4773 -182.45886 542.0
-234.80641 -181.78558 540.0
-229.73576 -180.77567 537.0
-225.9696 -180.77567 537.0
-221.78967 -180.43904 536.0
-217.21698 -179.76575 534.0
-213.07208 -179.42911 533.0
-208.94124 -179.09247 532.0
-204.8244 -178.75583 531.0
-200.3429 -178.08255 529.0
-196.26114 -177.74591 528.0
-192.55807 -177.74591 528.0
-188.85506 -177.74591 528.0
-185.50267 -178.08255 529.0
-182.13628 -178.41919 530.0
-179.42914 -179.42911 533.0
-176.02063 -179.76575 534.0
-174.21121 -181.78558 540.0
-172.002 -183.46878 545.0
-169.72267 -185.152 550.0
-166.77007 -186.16191 553.0
-163.18623 -186.49855 554.0
-159.58841 -186.83519 555.0
-156.53761 -187.84511 558.0
-152.62416 -187.84511 558.0
-148.97725 -188.18175 559.0
-145.31627 -188.51839 560.0
-142.14624 -189.5283 563.0
-138.68867 -190.20158 565.0
-134.72614 -190.20158 565.0
-131.45793 -191.2115 568.0
-127.69878 -191.54816 569.0
-124.57784 -192.8947 573.0
-120.98 -193.568 575.0
-264.0941 -179.73071 523.0
-260.42612 -179.73071 523.0
-255.77628 -179.0434 521.0
-252.12234 -179.0434 521.0
-247.99147 -178.69974 520.0
-244.81444 -179.0434 521.0
-241.62337 -179.38705 522.0
-238.87415 -180.07436 524.0
-241.4831 -184.88551 538.0
-237.2681 -184.54185 537.0
-233.50192 -184.54185 537.0
-228.88014 -183.85454 535.0
-225.128 -183.85454 535.0
-220.9621 -183.5109 534.0
-216.81021 -183.16724 533.0
-212.27257 -182.47993 531.0
-208.15575 -182.13629 530.0
-204.43867 -182.13629 530.0
-200.3429 -181.79262 529.0
-196.26114 -181.44897 528.0
-192.55807 -181.44897 528.0
-188.85506 -181.44897 528.0
-185.50267 -181.79262 529.0
-182.47993 -182.47993 531.0
-179.76578 -183.5109 534.0
-176.6799 -184.1982 536.0
-174.85643 -186.26012 542.0
-172.31761 -187.63474 546.0
-169.4141 -188.6657 549.0
-166.16692 -189.353 551.0
-162.59712 -189.69666 552.0
-159.30086 -190.38396 554.0
-155.41547 -190.38396 554.0
-151.8036 -190.72762 555.0
-148.44423 -191.41492 557.0
-144.79727 -191.75858 558.0
-141.64128 -192.78954 561.0
-138.4432 -193.8205 564.0
-134.72614 -194.16414 565.0
-131.22649 -194.85144 567.0
-127.69878 -195.53877 569.0
-124.57784 -196.91338 573.0
-270.39206 -182.69734 521.0
-266.73813 -182.69734 521.0
-262.57922 -182.34666 520.0
-257.9364 -181.64534 518.0
-253.81255 -181.29468 517.0
-250.18665 -181.29468 517.0
-246.56076 -181.29468 517.0
-242.93486 -181.29468 517.0
-239.30896 -181.29468 517.0
-235.2272 -180.94402 516.0
-240.13654 -187.60667 535.0
-236.38441 -187.60667 535.0
-232.19743 -187.25601 534.0
-228.45232 -187.25601 534.0
-224.2864 -186.90533 533.0
-220.13452 -186.55467 532.0
-215.18312 -185.50267 529.0
-211.47304 -185.50267 529.0
-207.76299 -185.50267 529.0
-204.05295 -185.50267 529.0
-200.3429 -185.50267 529.0
-196.63284 -185.50267 529.0
-192.92276 -185.50267 529.0
-189.21272 -185.50267 529.0
-185.85333 -185.85335 530.0
-182.82358 -186.55467 532.0
-179.76578 -187.25601 534.0
-177.00952 -188.30801 537.0
-174.85643 -190.06134 542.0
-172.31761 -191.46402 546.0
-168.79692 -191.81467 547.0
-165.2622 -192.16534 548.0
-162.00801 -192.86667 550.0
-158.4382 -193.21735 551.0
-155.41547 -194.26935 554.0
-151.53009 -194.26935 554.0
-147.64471 -194.26935 554.0
-144.27829 -194.97067 556.0
-141.13632 -196.02267 559.0
-138.19774 -197.42534 563.0
-134.72614 -198.12668 565.0
-130.99504 -198.47734 566.0
-127.69878 -199.52934 569.0
-279.1938 -184.92056 517.0
-274.50186 -184.2052 515.0
-271.94202 -184.92056 517.0
-268.31613 -184.92056 517.0
-264.69022 -184.92056 517.0
-261.06433 -184.92056 517.0
-257.43845 -184.92056 517.0
-250.86694 -182.77449 511.0
-247.76706 -183.13217 512.0
-244.17622 -183.13217 512.0
-241.05528 -183.48985 513.0
-237.92032 -183.84753 514.0
-234.31548 -183.84753 514.0
-238.78998 -190.28577 532.0
-235.0589 -190.28577 532.0
-231.76262 -190.64345 533.0
-227.16888 -189.92809 531.0
-223.024 -189.5704 530.0
-219.30695 -189.5704 530.0
-215.18312 -189.21274 529.0
-211.47304 -189.21274 529.0
-207.76299 -189.21274 529.0
-203.6672 -188.85504 528.0
-199.96416 -188.85504 528.0
-195.88943 -188.49736 527.0
-192.92276 -189.21274 529.0
-189.21272 -189.21274 529.0
-185.85333 -189.5704 530.0
-182.82358 -190.28577 532.0
-179.76578 -191.00113 534.0
-177.33914 -192.43185 538.0
-174.85643 -193.86256 542.0
-172.002 -194.9356 545.0
-168.48834 -195.29329 546.0
-164.65904 -195.29329 546.0
-161.41887 -196.00865 548.0
-158.15067 -196.724 550.0
-154.57387 -197.08168 551.0
-150.98305 -197.43936 552.0
-147.64471 -198.15472 554.0
-144.0188 -198.5124 555.0
-140.88383 -199.58545 558.0
-137.95227 -201.01616 562.0
-134.72614 -202.0892 565.0
-281.1786 -187.45238 514.0
-277.5737 -187.45238 514.0
-273.96884 -187.45238 514.0
-270.364 -187.45238 514.0
-267.27814 -187.81708 515.0
-263.6663 -187.81708 515.0
-260.55936 -188.18176 516.0
-253.45485 -185.6289 509.0
-249.39415 -185.2642 508.0
-246.31529 -185.6289 509.0
-242.74551 -185.6289 509.0
-239.1757 -185.6289 509.0
-236.53168 -186.35829 511.0
-233.40375 -186.72299 512.0
-237.44344 -192.92278 529.0
-233.73338 -192.92278 529.0
-230.0233 -192.92278 529.0
-226.31325 -192.92278 529.0
-222.60321 -192.92278 529.0
-218.89316 -192.92278 529.0
-214.77634 -192.55809 528.0
-210.67352 -192.19339 527.0
-206.9775 -192.19339 527.0
-203.28148 -192.19339 527.0
-199.58545 -192.19339 527.0
-195.88943 -192.19339 527.0
-192.55807 -192.55809 528.0
-189.21272 -192.92278 529.0
-185.85333 -193.28748 530.0
-183.16724 -194.38156 533.0
-180.1024 -195.11093 535.0
-177.33914 -196.20502 538.0
-174.53381 -197.29909 541.0
-171.6864 -198.39317 544.0
-167.87115 -198.39317 544.0
-164.35747 -198.75787 545.0
-160.82976 -199.12256 546.0
-157.86311 -200.21664 549.0
-154.29333 -200.58133 550.0
-150.70953 -200.94603 551.0
-147.3782 -201.67542 553.0
-144.27829 -202.7695 556.0
-140.88383 -203.49889 558.0
-137.95227 -204.95766 562.0
-279.53745 -189.94211 511.0
-275.95364 -189.94211 511.0
-272.3698 -189.94211 511.0
-267.734 -189.1987 509.0
-264.1642 -189.1987 509.0
-258.54654 -187.71187 505.0
-254.49983 -187.34015 504.0
-251.46307 -187.71187 505.0
-248.41228 -188.08357 506.0
-245.34746 -188.45528 507.0
-241.7917 -188.45528 507.0
-238.70581 -188.827 508.0
-236.53168 -189.94211 511.0
-233.40375 -190.31381 512.0
-229.36407 -189.94211 511.0
-233.73338 -196.63283 529.0
-229.58849 -196.26112 528.0
-225.45763 -195.8894 527.0
-221.76161 -195.8894 527.0
-217.65181 -195.5177 526.0
-213.96278 -195.5177 526.0
-210.27376 -195.5177 526.0
-206.9775 -195.8894 527.0
-203.28148 -195.8894 527.0
-199.58545 -195.8894 527.0
-195.88943 -195.8894 527.0
-192.55807 -196.26112 528.0
-189.21272 -196.63283 529.0
-186.20401 -197.37624 531.0
-183.16724 -198.11964 533.0
-180.1024 -198.86307 535.0
-177.00952 -199.60648 537.0
-174.21121 -200.7216 540.0
-171.0552 -201.46501 542.0
-167.56256 -201.83672 543.0
-164.05591 -202.20842 544.0
-160.82976 -202.95183 546.0
-157.57558 -203.69525 548.0
-154.29333 -204.43867 550.0
-150.70953 -204.81038 551.0
-147.3782 -205.55379 553.0
-144.27829 -206.6689 556.0
-276.80225 -191.63232 506.0
-271.63342 -190.49615 503.0
-268.63873 -190.87486 504.0
-265.104 -190.87486 504.0
-261.0503 -190.49615 503.0
-257.5226 -190.49615 503.0
-253.99487 -190.49615 503.0
-250.96512 -190.87486 504.0
-247.92134 -191.2536 505.0
-244.37961 -191.2536 505.0
-241.31479 -191.63232 506.0
-238.23592 -192.01103 507.0
-235.60593 -192.76846 509.0
-232.94788 -193.52592 511.0
-230.26176 -194.28336 513.0
-231.966 -198.828 525.0
-228.28401 -198.828 525.0
-224.602 -198.828 525.0
-220.92001 -198.828 525.0
-217.238 -198.828 525.0
-213.55602 -198.828 525.0
-210.27376 -199.20671 526.0
-206.58475 -199.20671 526.0
-203.28148 -199.58543 527.0
-199.96416 -199.96416 528.0
-196.63284 -200.34286 529.0
-192.92276 -200.34286 529.0
-189.5704 -200.7216 530.0
-186.55467 -201.47903 532.0
-183.5109 -202.23647 534.0
-179.76578 -202.23647 534.0
-177.00952 -203.37263 537.0
-174.21121 -204.5088 540.0
-170.73961 -204.88751 541.0
-167.25398 -205.26624 542.0
-164.05591 -206.02367 544.0
-160.5352 -206.4024 545.0
-157.00047 -206.78111 546.0
-154.0128 -207.91727 549.0
-150.436 -208.296 550.0
-273.52002 -192.86665 500.0
-270.55338 -193.25238 501.0
-267.03967 -193.25238 501.0
-263.0 -192.86665 500.0
-259.49335 -192.86665 500.0
-257.01062 -193.63812 502.0
-253.48993 -193.63812 502.0
-250.46718 -194.02386 503.0
-247.4304 -194.40959 504.0
-242.92786 -193.63812 502.0
-238.93025 -193.25238 501.0
-235.88646 -193.63812 502.0
-232.36577 -193.63812 502.0
-231.1244 -195.56679 507.0
-234.30145 -201.35278 522.0
-230.64049 -201.35278 522.0
-226.97952 -201.35278 522.0
-223.74638 -201.73853 523.0
-220.4992 -202.12425 524.0
-217.238 -202.51 525.0
-213.55602 -202.51 525.0
-209.87401 -202.51 525.0
-206.9775 -203.28146 527.0
-204.05295 -204.05293 529.0
-200.3429 -204.05293 529.0
-197.00455 -204.43866 530.0
-193.65216 -204.82439 531.0
-190.28577 -205.21013 532.0
-187.25601 -205.98158 534.0
-183.5109 -205.98158 534.0
-180.1024 -206.36732 535.0
-177.00952 -207.1388 537.0
-173.88858 -207.91026 539.0
-170.42401 -208.29599 540.0
-166.63681 -208.29599 540.0
-163.75433 -209.45319 543.0
-160.5352 -210.22466 545.0
-157.00047 -210.61038 546.0
-154.0128 -211.7676 549.0
-271.33185 -194.80234 496.0
-268.9333 -195.58783 498.0
-265.97366 -195.98058 499.0
-262.474 -195.98058 499.0
-258.97437 -195.98058 499.0
-257.01062 -197.15881 502.0
-252.48001 -196.37332 500.0
-248.47539 -195.98058 499.0
-244.97574 -195.98058 499.0
-241.47609 -195.98058 499.0
-237.97646 -195.98058 499.0
-234.94667 -196.37332 500.0
-231.90288 -196.76607 501.0
-228.84508 -197.15881 502.0
-233.8526 -204.621 521.0
-230.19865 -204.621 521.0
-226.5447 -204.621 521.0
-223.74638 -205.4065 523.0
-220.4992 -205.79924 524.0
-217.238 -206.19199 525.0
-213.96278 -206.58475 526.0
-210.67352 -206.97748 527.0
-207.76299 -207.76297 529.0
-204.05295 -207.76297 529.0
-200.7216 -208.15572 530.0
-197.74796 -208.94121 532.0
-194.38155 -209.33397 533.0
-190.64345 -209.33397 533.0
-187.25601 -209.7267 534.0
-183.5109 -209.7267 534.0
-180.1024 -210.11946 535.0
-177.00952 -210.90495 537.0
-173.56598 -211.2977 538.0
-170.42401 -212.08319 540.0
-166.9454 -212.47592 541.0
-163.75433 -213.26143 543.0
-160.82976 -214.43967 546.0
-270.78482 -197.88121 495.0
-267.85324 -198.28096 496.0
-265.44064 -199.08049 498.0
-259.84402 -197.48145 494.0
-256.37943 -197.48145 494.0
-253.4268 -197.88121 495.0
-250.46016 -198.28096 496.0
-246.98155 -198.28096 496.0
-243.50294 -198.28096 496.0
-240.02434 -198.28096 496.0
-237.02263 -198.68073 497.0
-234.00688 -199.08049 498.0
-230.97713 -199.48026 499.0
-227.93333 -199.88002 500.0
-224.87553 -200.27977 501.0
-230.19865 -208.27496 521.0
-226.97952 -208.67473 522.0
-223.74638 -209.0745 523.0
-220.92001 -209.87401 525.0
-217.65181 -210.27376 526.0
-214.77634 -211.0733 528.0
-211.47304 -211.47305 529.0
-208.15575 -211.87282 530.0
-204.8244 -212.27257 531.0
-201.47905 -212.67233 532.0
-198.49138 -213.47185 534.0
-194.74623 -213.47185 534.0
-191.00111 -213.47185 534.0
-187.25601 -213.47185 534.0
-183.85454 -213.87161 535.0
-180.43906 -214.27136 536.0
-177.00952 -214.67113 537.0
-173.88858 -215.47066 539.0
-170.73961 -216.27017 541.0
-167.56256 -217.0697 543.0
-164.05591 -217.46947 544.0
-269.69073 -200.53926 493.0
-266.23315 -200.53926 493.0
-261.70953 -199.72572 491.0
-258.26602 -199.72572 491.0
-255.34145 -200.13248 492.0
-252.91486 -200.94603 494.0
-249.45024 -200.94603 494.0
-246.48361 -201.35281 495.0
-243.50294 -201.75958 496.0
-240.02434 -201.75958 496.0
-236.54572 -201.75958 496.0
-233.0671 -201.75958 496.0
-229.58849 -201.75958 496.0
-227.47748 -202.97989 499.0
-223.97783 -202.97989 499.0
-230.19865 -211.92892 521.0
-227.84917 -213.14923 524.0
-224.602 -213.55602 525.0
-221.76161 -214.36955 527.0
-218.47937 -214.77634 528.0
-215.18312 -215.18309 529.0
-211.8728 -215.58989 530.0
-208.94124 -216.40341 532.0
-205.59587 -216.8102 533.0
-201.85776 -216.8102 533.0
-198.49138 -217.21696 534.0
-194.74623 -217.21696 534.0
-191.00111 -217.21696 534.0
-187.60667 -217.62375 535.0
-183.85454 -217.62375 535.0
-180.43906 -218.03052 536.0
-177.33914 -218.84407 538.0
-174.21121 -219.6576 540.0
-171.3708 -220.87793 543.0
-266.95554 -201.92789 488.0
-263.53302 -201.92789 488.0
-260.64352 -202.34169 489.0
-257.21402 -202.34169 489.0
-254.82248 -203.16927 491.0
-251.8909 -203.58305 492.0
-248.94528 -203.99684 493.0
-245.98566 -204.41061 494.0
-243.01201 -204.8244 495.0
-239.5404 -204.8244 495.0
-236.54572 -205.23819 496.0
-232.59721 -204.8244 495.0
-229.58849 -205.23819 496.0
-226.10988 -205.23819 496.0
-223.97783 -206.47955 499.0
-230.64049 -215.99663 522.0
-227.41434 -216.41043 523.0
-224.602 -217.238 525.0
-221.3408 -217.6518 526.0
-218.47937 -218.47937 528.0
-215.18312 -218.89316 529.0
-212.27257 -219.72073 531.0
-209.33398 -220.54831 533.0
-205.98161 -220.9621 534.0
-202.2365 -220.9621 534.0
-198.86307 -221.37585 535.0
-195.47563 -221.78964 536.0
-191.71648 -221.78964 536.0
-187.95734 -221.78964 536.0
-184.54185 -222.20343 537.0
-181.11234 -222.61722 538.0
-177.99841 -223.4448 540.0
-174.21121 -223.4448 540.0

