ply
format ascii 1.0
comment made by @arthurmuchir
element vertex 957
property float x
property float y
property float z
end_header
-130.53217 -118.6656 564.0
-151.37581 -123.49076 568.0
-146.61374 -122.83853 565.0
-142.6512 -122.83853 565.0
-137.95227 -122.186295 562.0
-134.01079 -122.186295 562.0
-130.30074 -122.40371 563.0
-126.80106 -122.83853 565.0
-122.83854 -122.83853 565.0
-74.22913 -127.839035 588.0
-70.10528 -127.839035 588.0
-66.09365 -128.05644 589.0
-155.9064 -127.92319 570.0
-150.84279 -127.02548 566.0
-146.61374 -126.801056 565.0
-141.89377 -126.12778 562.0
-135.74307 -124.10794 553.0
-132.10316 -124.33237 554.0
-128.68065 -124.78123 556.0
-125.90336 -125.90335 561.0
-122.83854 -126.801056 565.0
-74.10289 -131.73845 587.0
-69.986046 -131.73845 587.0
-65.98144 -131.96288 588.0
-61.8576 -131.96288 588.0
-163.32652 -131.4579 568.0
-159.34294 -131.4579 568.0
-155.35936 -131.4579 568.0
-150.57628 -130.76358 565.0
-146.35423 -130.53215 564.0
-135.25214 -127.52344 551.0
-131.62625 -127.75487 552.0
-128.21777 -128.21776 554.0
-125.00565 -128.91206 557.0
-122.40371 -130.3007 563.0
-119.0864 -130.99504 566.0
-82.196266 -135.62383 586.0
-77.9532 -135.39238 585.0
-73.85041 -135.39238 585.0
-69.7476 -135.39238 585.0
-65.869225 -135.85527 587.0
-61.8576 -136.0867 588.0
-168.19376 -136.15688 571.0
-163.61406 -135.67996 569.0
-159.34294 -135.44151 568.0
-151.8036 -132.34161 555.0
-147.91121 -132.34161 555.0
-133.2884 -129.48018 543.0
-129.71863 -129.71863 544.0
-127.292015 -131.14934 550.0
-124.332375 -132.10315 554.0
-121.75147 -133.53389 560.0
-118.244804 -134.01079 562.0
-114.303314 -134.01079 562.0
-111.147316 -134.9646 566.0
-107.55647 -135.44151 568.0
-86.01151 -139.25676 584.0
-82.056 -139.49521 585.0
-77.819954 -139.25676 584.0
-73.72417 -139.25676 584.0
-69.7476 -139.49521 585.0
-65.75701 -139.73367 586.0
-61.8576 -140.21057 588.0
-177.11472 -134.76122 549.0
-173.8956 -135.25214 551.0
-170.33984 -135.49762 552.0
-166.46849 -135.49762 552.0
-162.30257 -135.25214 551.0
-158.4382 -135.25214 551.0
-154.8544 -135.49762 552.0
-151.53009 -135.98854 554.0
-147.64471 -135.98854 554.0
-135.32928 -131.57014 536.0
-132.552 -132.55202 540.0
-129.48016 -133.2884 543.0
-126.82913 -134.51575 548.0
-123.659096 -135.25214 551.0
-120.229576 -135.74307 553.0
-116.56161 -135.98854 554.0
-113.08299 -136.47948 556.0
-109.96908 -137.46135 560.0
-107.36712 -139.17961 567.0
-103.57291 -139.42506 568.0
-94.0418 -143.10707 583.0
-89.953 -143.10707 583.0
-85.864235 -143.10707 583.0
-81.77547 -143.10707 583.0
-77.6867 -143.10707 583.0
-73.72417 -143.35254 584.0
-69.7476 -143.598 585.0
-65.6448 -143.598 585.0
-184.14209 -138.10657 547.0
-180.30579 -138.10657 547.0
-176.4695 -138.10657 547.0
-172.63321 -138.10657 547.0
-169.1055 -138.35905 548.0
-165.56378 -138.61153 549.0
-161.71342 -138.61153 549.0
-158.15067 -138.864 550.0
-154.57387 -139.11649 551.0
-150.70953 -139.11649 551.0
-147.1117 -139.36897 552.0
-138.05045 -134.31937 532.0
-134.82433 -134.82433 534.0
-131.57014 -135.32928 536.0
-128.7648 -136.3392 540.0
-126.36625 -137.85408 546.0
-123.210236 -138.61153 549.0
-119.14251 -138.35905 548.0
-115.2992 -138.35905 548.0
-111.86267 -138.864 550.0
-108.79083 -139.87393 554.0
-106.42032 -141.89377 562.0
-102.04401 -146.94336 582.0
-98.13057 -147.19585 583.0
-93.71919 -146.69089 581.0
-89.64442 -146.69089 581.0
-85.56968 -146.69089 581.0
-81.6352 -146.94336 582.0
-77.819954 -147.44833 584.0
-73.72417 -147.44833 584.0
-69.7476 -147.7008 585.0
-183.80545 -141.68336 546.0
-179.3169 -141.16438 544.0
-175.50165 -141.16438 544.0
-172.002 -141.42387 545.0
-168.48834 -141.68336 546.0
-164.65904 -141.68336 546.0
-161.12431 -141.94286 547.0
-157.57558 -142.20235 548.0
-154.29333 -142.72133 550.0
-150.436 -142.72133 550.0
-146.84518 -142.98082 551.0
-137.27197 -137.27197 529.0
-133.8144 -137.53146 530.0
-131.07921 -138.56944 534.0
-128.04945 -139.34792 537.0
-125.903366 -141.16438 544.0
-121.86368 -140.90488 543.0
-117.62061 -140.3859 541.0
-114.4576 -141.16438 544.0
-111.049126 -141.68336 546.0
-108.20171 -142.98082 551.0
-105.94341 -150.76562 581.0
-101.86867 -150.76562 581.0
-97.96225 -151.02512 582.0
-93.71919 -150.76562 581.0
-89.64442 -150.76562 581.0
-85.56968 -150.76562 581.0
-81.6352 -151.02512 582.0
-77.6867 -151.2846 583.0
-185.91647 -144.1801 541.0
-182.4589 -144.44661 542.0
-178.65765 -144.44661 542.0
-174.85643 -144.44661 542.0
-171.3708 -144.71312 543.0
-168.17973 -145.24612 545.0
-164.65904 -145.51263 546.0
-160.82976 -145.51263 546.0
-157.28802 -145.77914 547.0
-154.29333 -146.57867 550.0
-150.436 -146.57867 550.0
-146.84518 -146.84518 551.0
-136.234 -139.916 525.0
-133.30943 -140.71552 528.0
-130.83374 -142.04805 533.0
-119.84384 -142.31456 534.0
-116.31614 -142.58107 535.0
-113.616005 -143.9136 540.0
-110.84573 -145.24612 545.0
-107.21985 -145.51263 546.0
-105.76107 -154.57387 580.0
-101.86867 -154.84038 581.0
-97.79392 -154.84038 581.0
-93.71919 -154.84038 581.0
-89.64442 -154.84038 581.0
-85.71696 -155.10689 582.0
-81.77547 -155.37338 583.0
-189.36 -147.7008 540.0
-185.5728 -147.7008 540.0
-181.44897 -147.42728 539.0
-177.99841 -147.7008 540.0
-174.21121 -147.7008 540.0
-171.0552 -148.24783 542.0
-167.87115 -148.79488 544.0
-164.65904 -149.34192 546.0
-160.82976 -149.34192 546.0
-157.00047 -149.34192 546.0
-153.73227 -149.88895 548.0
-150.436 -150.436 550.0
-139.6495 -143.32446 524.0
-135.9745 -143.32446 524.0
-132.552 -143.598 525.0
-122.43177 -144.69206 529.0
-119.17056 -145.23912 531.0
-116.09872 -146.05968 534.0
-112.77441 -146.60672 536.0
-111.049126 -149.34192 546.0
-107.21985 -149.34192 546.0
-109.26072 -157.82103 577.0
-105.39637 -158.09456 578.0
-101.69334 -158.6416 580.0
-97.96225 -159.18863 582.0
-93.88049 -159.18863 582.0
-89.79871 -159.18863 582.0
-192.78952 -151.20746 539.0
-189.00934 -151.20746 539.0
-184.54185 -150.6464 537.0
-180.7757 -150.6464 537.0
-177.00952 -150.6464 537.0
-173.88858 -151.20746 539.0
-170.42401 -151.48799 540.0
-167.25398 -152.04906 542.0
-164.35747 -152.89066 545.0
-160.82976 -153.17119 546.0
-157.28802 -153.45174 547.0
-154.57387 -154.57385 551.0
-154.5388 -158.50133 565.0
-139.91602 -147.27998 525.0
-136.234 -147.27998 525.0
-132.552 -147.27998 525.0
-124.949554 -146.99945 524.0
-121.50601 -147.27998 525.0
-118.7217 -148.40213 529.0
-115.88131 -149.52426 533.0
-112.35361 -149.8048 534.0
-113.30743 -161.86774 577.0
-109.26072 -161.86774 577.0
-105.57872 -162.42879 579.0
-101.69334 -162.70934 580.0
-97.96225 -163.27039 582.0
-196.5697 -154.98764 539.0
-191.71648 -154.125 536.0
-187.95734 -154.125 536.0
-183.85454 -153.83746 535.0
-179.76578 -153.54991 534.0
-176.35027 -153.83746 535.0
-173.56598 -154.70009 538.0
-170.10841 -154.98764 539.0
-166.9454 -155.56273 541.0
-163.75433 -156.13782 543.0
-160.82976 -157.00047 546.0
-157.86311 -157.8631 549.0
-154.57387 -158.4382 551.0
-154.5388 -162.46385 565.0
-150.57628 -162.46385 565.0
-147.39221 -163.32649 568.0
-143.40865 -163.32649 568.0
-139.42508 -163.32649 568.0
-124.47265 -150.09935 522.0
-121.04314 -150.38689 523.0
-117.824 -150.96199 525.0
-115.22907 -152.39972 530.0
-112.1432 -153.26236 533.0
-113.30743 -165.91441 577.0
-109.45007 -166.20197 578.0
-105.76107 -166.77705 580.0
-101.86867 -167.0646 581.0
-196.20502 -158.4733 538.0
-191.00111 -157.29504 534.0
-187.25601 -157.29504 534.0
-183.16724 -157.00049 533.0
-179.76578 -157.29504 534.0
-176.02063 -157.29504 534.0
-172.92075 -157.88417 536.0
-170.10841 -158.76785 539.0
-166.63681 -159.06241 540.0
-163.75433 -159.94609 543.0
-160.5352 -160.53522 545.0
-157.86311 -161.71346 549.0
-157.37921 -165.24817 561.0
-154.26529 -166.13185 564.0
-150.57628 -166.4264 565.0
-147.39221 -167.31009 568.0
-143.66112 -167.60464 569.0
-139.42508 -167.31009 568.0
-124.711105 -154.0549 523.0
-120.81169 -153.76033 522.0
-117.59957 -154.34944 524.0
-117.96427 -170.84482 580.0
-113.896545 -170.84482 580.0
-109.8288 -170.84482 580.0
-199.60649 -161.94489 537.0
-194.74623 -161.04016 534.0
-190.64345 -160.73859 533.0
-186.55467 -160.43703 532.0
-182.82358 -160.43703 532.0
-179.0925 -160.43703 532.0
-175.69101 -160.73859 533.0
-172.92075 -161.64333 536.0
-169.7928 -162.24646 538.0
-166.63681 -162.84961 540.0
-163.75433 -163.75433 543.0
-160.82976 -164.65904 546.0
-157.00047 -164.65904 546.0
-157.65974 -169.48422 562.0
-154.5388 -170.38895 565.0
-150.84279 -170.69052 566.0
-147.39221 -171.29366 568.0
-143.40865 -171.29366 568.0
-139.67053 -171.59523 569.0
-136.15686 -172.19838 571.0
-132.3837 -172.49995 572.0
-117.59957 -158.02443 524.0
-124.79525 -173.1031 574.0
-117.760895 -174.61096 579.0
-114.092926 -175.21411 581.0
-202.2365 -164.78528 534.0
-198.49138 -164.78528 534.0
-193.65216 -163.85951 531.0
-189.92807 -163.85951 531.0
-186.20401 -163.85951 531.0
-182.13628 -163.55095 530.0
-178.4192 -163.55095 530.0
-175.36139 -164.1681 532.0
-172.27551 -164.78528 534.0
-169.7928 -166.01964 538.0
-166.63681 -166.6368 540.0
-163.75433 -167.56256 543.0
-160.82976 -168.48831 546.0
-160.1635 -171.88278 557.0
-157.94028 -173.7343 563.0
-154.5388 -174.35147 565.0
-150.57628 -174.35147 565.0
-147.13272 -174.96864 567.0
-143.40865 -175.27724 568.0
-139.67053 -175.58582 569.0
-135.67996 -175.58582 569.0
-132.15225 -176.20299 571.0
-128.37206 -176.51158 572.0
-124.79525 -177.12875 574.0
-121.19041 -177.74593 576.0
-117.35411 -178.0545 577.0
-93.501755 -187.00352 606.0
-89.98808 -188.54646 611.0
-86.12373 -189.47221 614.0
-82.483826 -191.01515 619.0
-78.64753 -192.2495 623.0
-205.98161 -168.5304 534.0
-201.85776 -168.2148 533.0
-197.37625 -167.5836 531.0
-193.28748 -167.268 530.0
-189.21272 -166.9524 529.0
-185.50267 -166.9524 529.0
-181.79263 -166.9524 529.0
-178.4192 -167.268 530.0
-175.69101 -168.2148 533.0
-172.27551 -168.5304 534.0
-169.7928 -169.7928 538.0
-166.63681 -170.424 540.0
-164.35747 -172.002 545.0
-160.82976 -172.3176 546.0
-160.1635 -175.7892 557.0
-157.65974 -177.3672 562.0
-154.26529 -177.9984 564.0
-150.57628 -178.314 565.0
-146.87323 -178.6296 566.0
-143.15616 -178.9452 567.0
-139.42508 -179.2608 568.0
-135.67996 -179.5764 569.0
-131.9208 -179.892 570.0
-128.37206 -180.5232 572.0
-124.57784 -180.8388 573.0
-121.19041 -181.7856 576.0
-117.5575 -182.4168 578.0
-114.68204 -184.3104 584.0
-111.7224 -186.204 590.0
-107.94923 -186.8352 592.0
-104.674 -188.4132 597.0
-100.82369 -189.0444 599.0
-97.10662 -189.9912 602.0
-93.501755 -191.2536 606.0
-89.69352 -192.2004 609.0
-85.8432 -193.1472 612.0
-82.08406 -194.4096 616.0
-78.268814 -195.672 620.0
-205.98161 -172.27551 534.0
-201.47905 -171.6303 532.0
-197.00455 -170.98506 530.0
-192.92276 -170.66245 529.0
-189.21272 -170.66245 529.0
-185.50267 -170.66245 529.0
-181.79263 -170.66245 529.0
-178.4192 -170.98506 530.0
-175.69101 -171.95291 533.0
-172.27551 -172.27551 534.0
-169.4772 -173.24335 537.0
-166.9454 -174.53381 541.0
-164.35747 -175.82426 545.0
-163.77536 -179.37302 556.0
-160.45105 -180.01823 558.0
-157.37921 -180.98608 561.0
-153.99176 -181.6313 563.0
-150.30978 -181.95392 564.0
-146.61374 -182.27654 565.0
-142.6512 -182.27654 565.0
-138.93414 -182.59914 566.0
-135.20305 -182.92175 567.0
-131.68938 -183.56699 569.0
-128.14763 -184.21222 571.0
-124.57784 -184.85744 573.0
-121.19041 -185.82527 576.0
-117.760895 -186.79312 579.0
-114.485664 -188.08356 583.0
-111.15432 -189.37402 587.0
-107.58453 -190.34186 590.0
-104.148 -191.63232 594.0
-100.487045 -192.60016 597.0
-96.78401 -193.568 600.0
-93.03887 -194.53583 603.0
-89.39896 -195.8263 607.0
-85.56267 -196.79413 610.0
-81.81756 -198.0846 614.0
-78.268814 -200.02026 620.0
-214.67113 -177.00952 537.0
-210.11948 -176.35027 535.0
-205.59587 -175.69101 533.0
-201.10034 -175.03175 531.0
-197.00455 -174.70213 530.0
-192.92276 -174.37251 529.0
-189.21272 -174.37251 529.0
-185.15201 -174.04288 528.0
-181.79263 -174.37251 529.0
-178.4192 -174.70213 530.0
-175.36139 -175.36137 532.0
-172.27551 -176.02063 534.0
-170.42401 -177.99838 540.0
-167.56256 -178.98727 543.0
-164.96063 -180.30577 547.0
-163.18623 -182.61316 554.0
-159.87595 -183.27243 556.0
-156.53761 -183.93167 558.0
-153.1712 -184.59093 560.0
-149.51025 -184.92055 561.0
-145.83525 -185.25018 562.0
-142.39871 -185.90944 564.0
-138.68867 -186.23906 565.0
-134.9646 -186.56868 566.0
-131.45793 -187.22794 568.0
-127.923195 -187.88719 570.0
-124.36043 -188.54645 572.0
-120.76961 -189.20569 574.0
-117.5575 -190.52422 578.0
-114.485664 -192.17235 583.0
-110.96495 -193.16122 586.0
-107.40218 -194.1501 589.0
-103.79734 -195.13898 592.0
-100.150406 -196.12785 595.0
-96.6227 -197.44637 599.0
-92.88458 -198.43524 602.0
-89.25168 -199.75375 606.0
-85.4224 -200.74263 609.0
-247.1639 -177.07263 526.0
-243.47488 -177.07263 526.0
-240.24174 -177.40927 527.0
-236.54572 -177.40927 527.0
-231.01921 -181.78558 540.0
-223.03102 -181.44896 539.0
-218.4373 -180.77567 537.0
-214.27136 -180.43904 536.0
-209.72672 -179.76575 534.0
-205.59587 -179.42911 533.0
-201.10034 -178.75583 531.0
-196.63284 -178.08255 529.0
-192.92276 -178.08255 529.0
-189.21272 -178.08255 529.0
-185.50267 -178.08255 529.0
-181.79263 -178.08255 529.0
-178.4192 -178.41919 530.0
-175.36139 -179.09247 532.0
-172.27551 -179.76575 534.0
-170.73961 -182.12224 541.0
-167.87115 -183.13216 544.0
-166.16692 -185.48863 551.0
-163.18623 -186.49855 554.0
-159.30086 -186.49855 554.0
-156.25706 -187.50847 557.0
-152.62416 -187.84511 558.0
-148.97725 -188.18175 559.0
-145.57576 -188.85504 561.0
-141.89377 -189.19167 562.0
-138.19774 -189.5283 563.0
-134.72614 -190.20158 565.0
-130.99504 -190.53824 566.0
-127.47434 -191.2115 568.0
-123.925606 -191.88478 570.0
-120.3488 -192.55807 572.0
-117.35411 -194.24127 577.0
-114.092926 -195.58783 581.0
-110.7756 -196.93439 585.0
-107.21984 -197.9443 588.0
-103.622 -198.95422 591.0
-99.98209 -199.96416 594.0
-96.30009 -200.97408 597.0
-92.730286 -202.32062 601.0
-257.24908 -180.07436 524.0
-253.5741 -180.07436 524.0
-249.89911 -180.07436 524.0
-246.2241 -180.07436 524.0
-242.54912 -180.07436 524.0
-239.33 -180.41801 525.0
-236.54572 -181.10532 527.0
-234.37157 -185.22916 539.0
-230.16359 -184.88551 538.0
-226.8112 -185.22916 539.0
-222.61723 -184.88551 538.0
-217.62375 -183.85454 535.0
-213.47183 -183.5109 534.0
-209.72672 -183.5109 534.0
-205.21014 -182.8236 532.0
-201.10034 -182.47993 531.0
-196.63284 -181.79262 529.0
-192.92276 -181.79262 529.0
-189.21272 -181.79262 529.0
-185.50267 -181.79262 529.0
-181.79263 -181.79262 529.0
-178.75584 -182.47993 531.0
-175.69101 -183.16724 533.0
-173.88858 -185.22916 539.0
-171.0552 -186.26012 542.0
-168.48834 -187.63474 546.0
-165.86534 -189.00934 550.0
-162.89168 -190.04031 553.0
-159.30086 -190.38396 554.0
-155.41547 -190.38396 554.0
-151.8036 -190.72762 555.0
-148.44423 -191.41492 557.0
-144.79727 -191.75858 558.0
-141.64128 -192.78954 561.0
-137.95227 -193.1332 562.0
-134.01079 -193.1332 562.0
-130.76361 -194.16414 565.0
-127.0255 -194.5078 566.0
-123.925606 -195.88242 570.0
-120.3488 -196.56972 572.0
-117.5575 -198.63164 578.0
-114.092926 -199.6626 581.0
-110.7756 -201.03722 585.0
-107.21984 -202.06818 588.0
-264.0941 -183.39867 523.0
-259.4302 -182.69734 521.0
-255.77628 -182.69734 521.0
-252.12234 -182.69734 521.0
-248.46838 -182.69734 521.0
-244.81444 -182.69734 521.0
-241.16048 -182.69734 521.0
-237.50655 -182.69734 521.0
-235.64801 -184.1 525.0
-237.2681 -188.30801 537.0
-233.50192 -188.30801 537.0
-229.73576 -188.30801 537.0
-225.54881 -187.95734 536.0
-220.9621 -187.25601 534.0
-216.81021 -186.90533 533.0
-213.07208 -186.90533 533.0
-209.33398 -186.90533 533.0
-204.8244 -186.20401 531.0
-200.7216 -185.85335 530.0
-197.00455 -185.85335 530.0
-192.92276 -185.50267 529.0
-189.21272 -185.50267 529.0
-185.50267 -185.50267 529.0
-182.13628 -185.85335 530.0
-178.75584 -186.20401 531.0
-176.02063 -187.25601 534.0
-174.21121 -189.36002 540.0
-171.3708 -190.41202 543.0
-168.48834 -191.46402 546.0
-165.2622 -192.16534 548.0
-161.71342 -192.516 549.0
-158.4382 -193.21735 551.0
-155.13493 -193.91867 553.0
-151.25656 -193.91867 553.0
-147.64471 -194.26935 554.0
-144.0188 -194.62001 555.0
-140.88383 -195.67201 558.0
-137.46133 -196.37334 560.0
-133.77232 -196.72401 561.0
-130.30074 -197.42534 563.0
-126.80106 -198.12668 565.0
-123.925606 -199.88002 570.0
-120.559204 -200.932 573.0
-117.35411 -202.33467 577.0
-114.092926 -203.73734 581.0
-281.96405 -189.21274 529.0
-274.04602 -186.35129 521.0
-270.39206 -186.35129 521.0
-265.71417 -185.63593 519.0
-262.57922 -185.9936 520.0
-258.93228 -185.9936 520.0
-254.7944 -185.63593 519.0
-250.67056 -185.27824 518.0
-247.03767 -185.27824 518.0
-242.93486 -184.92056 517.0
-239.30896 -184.92056 517.0
-235.68307 -184.92056 517.0
-232.05719 -184.92056 517.0
-235.94258 -191.00113 534.0
-232.63228 -191.3588 535.0
-228.88014 -191.3588 535.0
-224.2864 -190.64345 533.0
-220.13452 -190.28577 532.0
-216.40343 -190.28577 532.0
-212.27257 -189.92809 531.0
-208.54848 -189.92809 531.0
-204.43867 -189.5704 530.0
-200.3429 -189.21274 529.0
-196.63284 -189.21274 529.0
-192.92276 -189.21274 529.0
-189.21272 -189.21274 529.0
-185.50267 -189.21274 529.0
-182.13628 -189.5704 530.0
-179.42914 -190.64345 533.0
-176.35027 -191.3588 535.0
-174.21121 -193.1472 540.0
-171.3708 -194.22025 543.0
-168.17973 -194.9356 545.0
-164.65904 -195.29329 546.0
-161.12431 -195.65097 547.0
-157.57558 -196.00865 548.0
-154.29333 -196.724 550.0
-150.70953 -197.08168 551.0
-147.1117 -197.43936 552.0
-143.7593 -198.15472 554.0
-139.87392 -198.15472 554.0
-136.72495 -199.22777 557.0
-133.29543 -199.94313 559.0
-130.06929 -201.01616 562.0
-126.80106 -202.0892 565.0
-123.70818 -203.51993 569.0
-120.76961 -205.30833 574.0
-279.1938 -188.54646 517.0
-275.5679 -188.54646 517.0
-272.46802 -188.91115 518.0
-268.31613 -188.54646 517.0
-264.69022 -188.54646 517.0
-261.56927 -188.91115 518.0
-258.43433 -189.27585 519.0
-250.86694 -186.35829 511.0
-247.76706 -186.72299 512.0
-244.17622 -186.72299 512.0
-240.1155 -186.35829 511.0
-236.53168 -186.35829 511.0
-234.31548 -187.45238 514.0
-230.71063 -187.45238 514.0
-235.94258 -194.74625 534.0
-231.32779 -194.01686 532.0
-227.16888 -193.65216 531.0
-223.44481 -193.65216 531.0
-219.30695 -193.28748 530.0
-215.58987 -193.28748 530.0
-211.47304 -192.92278 529.0
-207.76299 -192.92278 529.0
-204.05295 -192.92278 529.0
-200.3429 -192.92278 529.0
-196.63284 -192.92278 529.0
-192.92276 -192.92278 529.0
-189.21272 -192.92278 529.0
-185.50267 -192.92278 529.0
-182.47993 -193.65216 531.0
-179.76578 -194.74625 534.0
-176.6799 -195.47562 536.0
-174.21121 -196.9344 540.0
-171.3708 -198.02849 543.0
-167.56256 -198.02849 543.0
-164.05591 -198.39317 544.0
-160.82976 -199.12256 546.0
-157.28802 -199.48726 547.0
-153.73227 -199.85196 548.0
-150.16249 -200.21664 549.0
-146.84518 -200.94603 551.0
-143.24033 -201.31071 552.0
-139.87392 -202.0401 554.0
-136.72495 -203.13419 557.0
-133.29543 -203.86357 559.0
-130.06929 -204.95766 562.0
-126.80106 -206.05173 565.0
-278.99042 -189.5704 510.0
-277.0337 -190.68552 513.0
-273.96884 -191.05722 514.0
-270.364 -191.05722 514.0
-266.75916 -191.05722 514.0
-260.08246 -188.827 508.0
-256.0147 -188.45528 507.0
-252.45897 -188.45528 507.0
-249.88507 -189.1987 509.0
-246.31529 -189.1987 509.0
-242.74551 -189.1987 509.0
-239.64561 -189.5704 510.0
-236.53168 -189.94211 511.0
-233.40375 -190.31381 512.0
-230.71063 -191.05722 514.0
-235.0589 -197.74794 532.0
-230.45815 -197.00453 530.0
-226.74107 -197.00453 530.0
-222.60321 -196.63283 529.0
-218.89316 -196.63283 529.0
-215.18312 -196.63283 529.0
-211.07327 -196.26112 528.0
-207.76299 -196.63283 529.0
-203.6672 -196.26112 528.0
-199.96416 -196.26112 528.0
-196.26114 -196.26112 528.0
-192.92276 -196.63283 529.0
-189.21272 -196.63283 529.0
-185.85333 -197.00453 530.0
-182.82358 -197.74794 532.0
-179.76578 -198.49135 534.0
-177.00952 -199.60648 537.0
-174.21121 -200.7216 540.0
-170.73961 -201.0933 541.0
-167.25398 -201.46501 542.0
-163.75433 -201.83672 543.0
-160.24063 -202.20842 544.0
-157.00047 -202.95183 546.0
-153.45174 -203.32355 547.0
-149.61545 -203.32355 547.0
-146.57867 -204.43867 550.0
-143.24033 -205.18208 552.0
-139.87392 -205.92549 554.0
-136.72495 -207.04062 557.0
-133.53387 -208.15573 560.0
-277.89633 -192.38976 508.0
-275.4136 -193.1472 510.0
-271.3038 -192.76846 509.0
-267.208 -192.38976 508.0
-263.12625 -192.01103 507.0
-259.5705 -192.01103 507.0
-255.50977 -191.63232 506.0
-251.96101 -191.63232 506.0
-248.41228 -191.63232 506.0
-245.34746 -192.01103 507.0
-242.2686 -192.38976 508.0
-239.1757 -192.76846 509.0
-236.0688 -193.1472 510.0
-232.94788 -193.52592 511.0
-230.71063 -194.66206 514.0
-227.5476 -195.0408 515.0
-229.15366 -199.58543 527.0
-225.88545 -199.96416 528.0
-222.1824 -199.96416 528.0
-218.06558 -199.58543 527.0
-214.36957 -199.58543 527.0
-210.67352 -199.58543 527.0
-206.9775 -199.58543 527.0
-203.6672 -199.96416 528.0
-199.58545 -199.58543 527.0
-196.63284 -200.34286 529.0
-192.92276 -200.34286 529.0
-189.21272 -200.34286 529.0
-185.85333 -200.7216 530.0
-182.82358 -201.47903 532.0
-179.76578 -202.23647 534.0
-177.00952 -203.37263 537.0
-174.21121 -204.5088 540.0
-170.42401 -204.5088 540.0
-166.9454 -204.88751 541.0
-163.75433 -205.64496 543.0
-159.94608 -205.64496 543.0
-156.42538 -206.02367 544.0
-153.1712 -206.78111 546.0
-149.61545 -207.15984 547.0
-146.84518 -208.67471 551.0
-143.4998 -209.43216 553.0
-140.1264 -210.1896 555.0
-137.21587 -211.70447 559.0
-274.6141 -193.63812 502.0
-272.17343 -194.40959 504.0
-268.63873 -194.40959 504.0
-265.104 -194.40959 504.0
-261.5693 -194.40959 504.0
-258.03458 -194.40959 504.0
-254.49983 -194.40959 504.0
-251.46307 -194.79533 505.0
-248.41228 -195.18106 506.0
-245.34746 -195.56679 507.0
-241.7917 -195.56679 507.0
-238.23592 -195.56679 507.0
-233.75441 -194.79533 505.0
-230.21268 -194.79533 505.0
-227.56865 -195.56679 507.0
-231.52419 -202.12425 524.0
-227.84917 -202.12425 524.0
-224.602 -202.51 525.0
-220.92001 -202.51 525.0
-217.238 -202.51 525.0
-213.96278 -202.89574 526.0
-210.67352 -203.28146 527.0
-206.9775 -203.28146 527.0
-204.05295 -204.05293 529.0
-200.3429 -204.05293 529.0
-196.63284 -204.05293 529.0
-193.28748 -204.43866 530.0
-189.92807 -204.82439 531.0
-186.55467 -205.21013 532.0
-183.5109 -205.98158 534.0
-179.76578 -205.98158 534.0
-176.6799 -206.75305 536.0
-173.56598 -207.52454 538.0
-170.10841 -207.91026 539.0
-166.63681 -208.29599 540.0
-162.84961 -208.29599 540.0
-159.65152 -209.06746 542.0
-156.42538 -209.83893 544.0
-153.1712 -210.61038 546.0
-149.61545 -210.99612 547.0
-146.84518 -212.53906 551.0
-143.7593 -213.69626 554.0
-272.973 -195.98058 499.0
-269.4733 -195.98058 499.0
-265.97366 -195.98058 499.0
-264.052 -197.15881 502.0
-260.5313 -197.15881 502.0
-257.5226 -197.55156 503.0
-253.99487 -197.55156 503.0
-250.96512 -197.9443 504.0
-247.4304 -197.9443 504.0
-242.92786 -197.15881 502.0
-239.40717 -197.15881 502.0
-235.88646 -197.15881 502.0
-232.36577 -197.15881 502.0
-229.30095 -197.55156 503.0
-226.22209 -197.9443 504.0
-231.08234 -205.4065 523.0
-227.41434 -205.4065 523.0
-224.1742 -205.79924 524.0
-220.92001 -206.19199 525.0
-217.238 -206.19199 525.0
-213.96278 -206.58475 526.0
-210.67352 -206.97748 527.0
-207.76299 -207.76297 529.0
-204.05295 -207.76297 529.0
-200.7216 -208.15572 530.0
-197.00455 -208.15572 530.0
-193.65216 -208.54848 531.0
-190.28577 -208.94121 532.0
-186.90533 -209.33397 533.0
-183.5109 -209.7267 534.0
-179.76578 -209.7267 534.0
-176.6799 -210.51219 536.0
-173.24336 -210.90495 537.0
-169.7928 -211.2977 538.0
-166.63681 -212.08319 540.0
-162.84961 -212.08319 540.0
-159.65152 -212.86868 542.0
-156.42538 -213.65417 544.0
-153.45174 -214.83241 547.0
-150.436 -216.01067 550.0
-147.64471 -217.58165 554.0
-271.33185 -198.28096 496.0
-268.9333 -199.08049 498.0
-265.97366 -199.48026 499.0
-262.474 -199.48026 499.0
-259.49335 -199.88002 500.0
-255.98668 -199.88002 500.0
-251.97504 -199.48026 499.0
-247.97745 -199.08049 498.0
-244.97574 -199.48026 499.0
-241.47609 -199.48026 499.0
-237.97646 -199.48026 499.0
-234.47676 -199.48026 499.0
-231.90288 -200.27977 501.0
-228.84508 -200.67953 502.0
-225.32439 -200.67953 502.0
-230.19865 -208.27496 521.0
-226.97952 -208.67473 522.0
-223.74638 -209.0745 523.0
-220.92001 -209.87401 525.0
-217.238 -209.87401 525.0
-214.36957 -210.67352 527.0
-211.07327 -211.0733 528.0
-207.76299 -211.47305 529.0
-204.43867 -211.87282 530.0
-201.47905 -212.67233 532.0
-198.11967 -213.0721 533.0
-194.38155 -213.0721 533.0
-190.64345 -213.0721 533.0
-186.90533 -213.0721 533.0
-183.5109 -213.47185 534.0
-179.76578 -213.47185 534.0
-176.35027 -213.87161 535.0
-173.24336 -214.67113 537.0
-170.10841 -215.47066 539.0
-166.63681 -215.8704 540.0
-163.15118 -216.27017 541.0
-159.94608 -217.0697 543.0
-156.71294 -217.8692 545.0
-270.2378 -200.94603 494.0
-267.85324 -201.75958 496.0
-264.90762 -202.16635 497.0
-260.37 -201.35281 495.0
-256.8984 -201.35281 495.0
-252.91486 -200.94603 494.0
-249.95522 -201.35281 495.0
-246.98155 -201.75958 496.0
-243.50294 -201.75958 496.0
-240.02434 -201.75958 496.0
-237.02263 -202.16635 497.0
-234.00688 -202.57314 498.0
-230.97713 -202.97989 499.0
-227.47748 -202.97989 499.0
-223.97783 -202.97989 499.0
-230.19865 -211.92892 521.0
-226.97952 -212.33568 522.0
-224.1742 -213.14923 524.0
-221.3408 -213.96278 526.0
-218.06558 -214.36955 527.0
-215.18312 -215.18309 529.0
-211.47304 -215.18309 529.0
-208.54848 -215.99663 531.0
-205.59587 -216.8102 533.0
-202.2365 -217.21696 534.0
-198.49138 -217.21696 534.0
-194.74623 -217.21696 534.0
-191.00111 -217.21696 534.0
-187.25601 -217.21696 534.0
-183.5109 -217.21696 534.0
-179.76578 -217.21696 534.0
-176.6799 -218.03052 536.0
-173.24336 -218.4373 537.0
-170.42401 -219.6576 540.0
-166.63681 -219.6576 540.0
-163.75433 -220.87793 543.0
-268.59665 -203.16927 491.0
-265.1531 -203.16927 491.0
-261.70953 -203.16927 491.0
-258.26602 -203.16927 491.0
-255.86043 -203.99684 493.0
-252.91486 -204.41061 494.0
-249.45024 -204.41061 494.0
-246.48361 -204.8244 495.0
-243.50294 -205.23819 496.0
-240.02434 -205.23819 496.0
-237.02263 -205.65198 497.0
-234.00688 -206.06577 498.0
-230.51425 -206.06577 498.0
-227.47748 -206.47955 499.0
-223.97783 -206.47955 499.0
-230.64049 -215.99663 522.0
-227.41434 -216.41043 523.0
-224.602 -217.238 525.0
-221.3408 -217.6518 526.0
-218.06558 -218.06558 527.0
-215.18312 -218.89316 529.0
-211.8728 -219.30695 530.0
-208.94124 -220.13452 532.0
-205.98161 -220.9621 534.0
-202.2365 -220.9621 534.0
-198.86307 -221.37585 535.0
-195.11095 -221.37585 535.0
-191.00111 -220.9621 534.0
-187.25601 -220.9621 534.0
-183.5109 -220.9621 534.0
-180.1024 -221.37585 535.0
-177.00952 -222.20343 537.0
-173.88858 -223.031 539.0
-170.42401 -223.4448 540.0

