ply
format ascii 1.0
comment made by @arthurmuchir
element vertex 527
property float x
property float y
property float z
end_header
-234.28041 -169.96814 655.0
-230.38802 -170.48712 657.0
-226.46756 -171.0061 659.0
-221.50914 -170.74661 658.0
-238.14474 -174.02884 653.0
-233.56505 -174.02884 653.0
-229.68668 -174.56186 655.0
-226.1239 -175.36139 658.0
-221.84578 -175.6279 659.0
-295.54187 -164.65904 602.0
-292.2877 -165.20607 604.0
-245.41057 -177.24095 648.0
-240.86594 -177.24095 648.0
-237.05066 -177.788 650.0
-233.20737 -178.33504 652.0
-229.33601 -178.88206 654.0
-225.78026 -179.70264 657.0
-298.27005 -168.03946 599.0
-294.56 -168.31999 600.0
-290.83594 -168.60052 601.0
-247.64081 -180.10239 642.0
-243.51697 -180.38292 643.0
-240.12251 -181.22452 646.0
-236.32127 -181.78558 648.0
-232.492 -182.34666 650.0
-228.63467 -182.90771 652.0
-225.09294 -183.74931 655.0
-304.4909 -173.39062 603.0
-297.7721 -171.9529 598.0
-293.57816 -171.9529 598.0
-290.35202 -172.52798 600.0
-256.64594 -184.60493 642.0
-252.14337 -184.60493 642.0
-247.64081 -184.60493 642.0
-243.13826 -184.60493 642.0
-239.37912 -185.18004 644.0
-235.95659 -186.04268 647.0
-232.13432 -186.61778 649.0
-228.63467 -187.48041 652.0
-213.9768 -194.95662 678.0
-209.53036 -195.24417 679.0
-205.67303 -196.10681 682.0
-301.46112 -175.85233 597.0
-296.77625 -175.55779 596.0
-292.59628 -175.55779 596.0
-288.90027 -175.85233 597.0
-285.19022 -176.1469 598.0
-254.64713 -187.63474 637.0
-250.57239 -187.92929 638.0
-246.86934 -188.51842 640.0
-242.75954 -188.81297 641.0
-239.0074 -189.4021 643.0
-235.95659 -190.58034 647.0
-232.13432 -191.16945 649.0
-220.84985 -197.35521 670.0
-216.79616 -197.94434 672.0
-213.03001 -198.82802 675.0
-209.22177 -199.7117 678.0
-204.46674 -199.7117 678.0
-299.44128 -178.833 593.0
-295.28238 -178.833 593.0
-291.12347 -178.833 593.0
-287.9324 -179.43614 595.0
-284.7133 -180.03928 597.0
-258.70786 -191.80064 636.0
-253.84761 -191.49907 635.0
-250.17963 -192.10222 637.0
-246.09787 -192.40381 638.0
-242.75954 -193.30852 641.0
-239.0074 -193.91167 643.0
-234.8625 -194.21324 644.0
-224.5389 -201.14943 667.0
-220.19061 -201.451 668.0
-216.47354 -202.35571 671.0
-212.0832 -202.6573 672.0
-208.6046 -203.86357 676.0
-203.86359 -203.86357 676.0
-298.9363 -182.6833 592.0
-294.78442 -182.6833 592.0
-290.63254 -182.6833 592.0
-286.96457 -182.9919 593.0
-284.2364 -183.91766 596.0
-281.936 -185.152 600.0
-265.94562 -195.02678 632.0
-261.51318 -195.02678 632.0
-257.08075 -195.02678 632.0
-252.64832 -195.02678 632.0
-249.78688 -196.26112 636.0
-245.71214 -196.5697 637.0
-242.38081 -197.49547 640.0
-239.0074 -198.42123 643.0
-232.492 -204.59297 663.0
-227.49852 -204.28438 662.0
-223.19234 -204.59297 663.0
-219.53137 -205.51874 666.0
-215.50572 -206.1359 668.0
-211.76761 -207.06166 671.0
-207.98743 -207.98741 674.0
-203.86359 -208.60458 676.0
-297.42145 -185.8884 589.0
-292.79263 -185.5728 588.0
-289.15973 -185.8884 589.0
-286.48065 -186.8352 592.0
-283.7595 -187.782 595.0
-280.99622 -188.7288 598.0
-269.95023 -199.1436 631.0
-265.104 -198.828 630.0
-260.6856 -198.828 630.0
-256.67398 -199.1436 631.0
-252.64832 -199.4592 632.0
-249.78688 -200.7216 636.0
-245.71214 -201.0372 637.0
-242.38081 -201.984 640.0
-231.79068 -208.6116 661.0
-226.46756 -207.98041 659.0
-222.8557 -208.9272 662.0
-218.8721 -209.5584 664.0
-215.18309 -210.5052 667.0
-211.45201 -211.452 670.0
-207.06168 -211.7676 671.0
-296.41153 -189.37402 587.0
-292.29468 -189.37402 587.0
-288.66882 -189.69664 588.0
-286.48065 -190.98709 592.0
-283.7595 -191.95493 595.0
-268.66678 -202.60117 628.0
-264.26242 -202.60117 628.0
-259.85803 -202.60117 628.0
-256.67398 -203.56902 631.0
-252.64832 -203.89162 632.0
-249.39415 -204.85945 635.0
-245.32642 -205.18207 636.0
-238.50943 -210.98912 654.0
-234.28041 -211.31172 655.0
-230.38802 -211.95695 657.0
-225.78026 -211.95695 657.0
-222.51906 -213.2474 661.0
-218.8721 -214.21524 664.0
-215.18309 -215.18309 667.0
-210.5052 -215.18309 667.0
-303.6072 -192.83159 585.0
-299.50443 -192.83159 585.0
-295.4016 -192.83159 585.0
-291.2988 -192.83159 585.0
-288.1779 -193.49084 587.0
-285.99673 -194.80936 591.0
-283.2826 -195.79823 594.0
-271.76666 -206.01666 625.0
-268.23895 -206.67592 627.0
-263.8416 -206.67592 627.0
-259.85803 -207.00554 628.0
-256.2672 -207.6648 630.0
-252.64832 -208.32405 632.0
-249.00139 -208.98329 634.0
-245.32642 -209.64255 636.0
-245.03185 -213.26845 647.0
-241.23766 -213.92769 649.0
-237.05066 -214.25732 650.0
-233.20737 -214.91658 652.0
-229.33601 -215.57584 654.0
-225.78026 -216.5647 657.0
-222.51906 -217.88322 661.0
-218.54248 -218.54247 663.0
-303.6072 -196.93439 585.0
-299.50443 -196.93439 585.0
-295.4016 -196.93439 585.0
-291.79675 -197.27103 586.0
-288.66882 -197.9443 588.0
-285.51282 -198.61758 590.0
-282.80566 -199.6275 593.0
-275.26633 -209.7267 623.0
-270.897 -209.7267 623.0
-266.5277 -209.7267 623.0
-263.0 -210.4 625.0
-259.44424 -211.07327 627.0
-256.2672 -212.08319 630.0
-252.64832 -212.75647 632.0
-248.2159 -212.75647 632.0
-249.18375 -217.46944 646.0
-245.03185 -217.80608 647.0
-240.49423 -217.80608 647.0
-236.68597 -218.47934 649.0
-233.20737 -219.48927 652.0
-228.98534 -219.8259 653.0
-225.78026 -221.17247 657.0
-221.84578 -221.84573 659.0
-307.18402 -200.69357 584.0
-303.6072 -201.03722 585.0
-298.99246 -200.69357 584.0
-294.89664 -200.69357 584.0
-291.79675 -201.38087 586.0
-289.15973 -202.41182 589.0
-285.99673 -203.09914 591.0
-282.1815 -212.72142 619.0
-278.28906 -213.06508 620.0
-274.38266 -213.40874 621.0
-270.4622 -213.7524 622.0
-266.5277 -214.09604 623.0
-262.57922 -214.4397 624.0
-259.44424 -215.47066 627.0
-256.2672 -216.50163 630.0
-256.24615 -220.28181 641.0
-252.14337 -220.62546 642.0
-248.02654 -220.9691 643.0
-243.51697 -220.9691 643.0
-239.37912 -221.31276 644.0
-235.95659 -222.34372 647.0
-232.492 -223.37468 650.0
-228.98534 -224.40565 653.0
-225.78026 -225.78026 657.0
-211.76761 -230.59142 671.0
-207.37025 -230.93506 672.0
-203.56203 -231.96602 675.0
-199.12256 -232.30968 676.0
-310.74677 -204.43867 583.0
-306.65802 -204.43867 583.0
-302.56924 -204.43867 583.0
-298.48047 -204.43867 583.0
-295.4016 -205.14001 585.0
-291.79675 -205.49068 586.0
-288.66882 -206.19202 588.0
-285.99673 -207.24402 591.0
-284.6712 -215.66 615.0
-281.72562 -216.712 618.0
-277.39136 -216.712 618.0
-273.499 -217.06268 619.0
-269.59253 -217.41335 620.0
-266.0999 -218.11469 622.0
-262.57922 -218.816 624.0
-259.85803 -220.21869 628.0
-257.89432 -222.32268 634.0
-255.8464 -224.42668 640.0
-251.75061 -224.77734 641.0
-247.25508 -224.77734 641.0
-243.13826 -225.128 642.0
-239.0074 -225.47868 643.0
-235.95659 -226.88135 647.0
-232.492 -227.93335 650.0
-228.63467 -228.63469 652.0
-215.18309 -233.89468 667.0
-210.8208 -234.24535 668.0
-207.06168 -235.29735 671.0
-203.26045 -236.34933 674.0
-199.12256 -237.05069 676.0
-313.21548 -207.4544 580.0
-309.68076 -207.81209 581.0
-305.60602 -207.81209 581.0
-302.05026 -208.16977 582.0
-298.99246 -208.88513 584.0
-295.90656 -209.60048 586.0
-292.29468 -209.95816 587.0
-287.68695 -209.60048 586.0
-295.19122 -218.1848 610.0
-291.86688 -218.90016 612.0
-288.04462 -219.25783 613.0
-283.74545 -219.25783 613.0
-279.90213 -219.61552 614.0
-275.59598 -219.61552 614.0
-272.17346 -220.3309 616.0
-268.72287 -221.04623 618.0
-265.6721 -222.1193 621.0
-262.57922 -223.19234 624.0
-259.85803 -224.62303 628.0
-258.3011 -227.1268 635.0
-254.64713 -227.84216 637.0
-250.57239 -228.19983 638.0
-246.86934 -228.9152 640.0
-242.75954 -229.27289 641.0
-239.0074 -229.98824 643.0
-235.95659 -231.41896 647.0
-232.492 -232.492 650.0
-222.8557 -236.78416 662.0
-218.21286 -236.78416 662.0
-214.86047 -238.21489 666.0
-210.5052 -238.57257 667.0
-206.1359 -238.93024 668.0
-202.35571 -240.0033 671.0
-316.73618 -211.15746 579.0
-312.67545 -211.15746 579.0
-309.14774 -211.52213 580.0
-305.08002 -211.52213 580.0
-301.53125 -211.88683 581.0
-298.99246 -212.98091 584.0
-295.90656 -213.7103 586.0
-292.79263 -214.43968 588.0
-288.66882 -214.43968 588.0
-293.73947 -221.36885 607.0
-290.4362 -222.09824 609.0
-286.16504 -222.09824 609.0
-282.3568 -222.46294 610.0
-278.99042 -223.19234 612.0
-275.1471 -223.557 613.0
-271.2898 -223.92172 614.0
-267.85324 -224.65111 616.0
-265.24426 -226.10986 620.0
-262.15842 -227.20395 623.0
-259.44424 -228.66273 627.0
-257.08075 -230.48619 632.0
-254.24736 -231.94496 636.0
-250.17963 -232.30965 637.0
-246.86934 -233.40375 640.0
-242.75954 -233.76842 641.0
-238.6357 -234.13313 642.0
-234.49782 -234.49782 643.0
-229.68668 -238.87415 655.0
-225.78026 -239.60353 657.0
-222.51906 -241.0623 661.0
-218.21286 -241.42699 662.0
-213.57004 -241.42699 662.0
-210.1896 -242.88577 666.0
-205.82732 -243.25044 667.0
-201.451 -243.61516 668.0
-315.6421 -214.47475 577.0
-311.05536 -214.10304 576.0
-307.54868 -214.47475 577.0
-304.55402 -215.21815 579.0
-301.53125 -215.96158 581.0
-298.99246 -217.07668 584.0
-296.41153 -218.19182 587.0
-293.78854 -219.30695 590.0
-291.12347 -220.42204 593.0
-290.35202 -223.024 600.0
-288.05164 -224.51082 604.0
-285.22525 -225.62596 607.0
-281.89392 -226.36937 609.0
-278.53455 -227.11278 611.0
-275.1471 -227.85619 613.0
-271.2898 -228.22787 614.0
-267.85324 -228.9713 616.0
-264.81647 -230.08643 619.0
-261.7376 -231.20155 622.0
-258.2029 -231.94496 624.0
-257.08075 -234.91861 632.0
-252.64832 -234.91861 632.0
-249.78688 -236.40544 636.0
-246.09787 -237.14885 638.0
-242.75954 -238.26398 641.0
-240.12251 -240.1225 646.0
-237.05066 -241.60934 650.0
-233.56505 -242.72444 653.0
-229.68668 -243.46786 655.0
-225.09294 -243.46786 655.0
-221.1725 -244.21127 657.0
-217.22397 -244.95468 659.0
-213.57004 -246.06981 662.0
-209.55841 -246.81322 664.0
-205.82732 -247.92836 667.0
-200.84785 -247.55664 666.0
-312.9069 -216.62784 572.0
-309.4353 -217.00656 573.0
-306.48267 -217.764 575.0
-304.028 -218.90016 578.0
-301.01227 -219.6576 580.0
-298.99246 -221.17247 584.0
-295.90656 -221.9299 586.0
-294.2865 -223.8235 591.0
-291.12347 -224.58096 593.0
-288.90027 -226.09584 597.0
-286.144 -227.232 600.0
-283.81558 -228.74687 604.0
-281.43106 -230.26176 608.0
-278.53455 -231.3979 611.0
-275.1471 -232.15536 613.0
-271.2898 -232.53407 614.0
-267.85324 -233.2915 616.0
-264.81647 -234.42767 619.0
-261.7376 -235.56383 622.0
-258.2029 -236.32127 624.0
-256.2672 -238.5936 630.0
-252.64832 -239.35103 632.0
-249.78688 -240.8659 636.0
-246.09787 -241.62337 638.0
-243.89569 -243.89568 644.0
-240.86594 -245.41057 648.0
-236.32127 -245.41057 648.0
-232.13432 -245.78928 649.0
-228.63467 -246.92543 652.0
-225.09294 -248.0616 655.0
-220.49922 -248.0616 655.0
-216.89435 -249.19777 658.0
-213.2474 -250.33391 661.0
-208.9272 -250.71263 662.0
-311.8128 -219.868 570.0
-308.35522 -220.25372 571.0
-305.41663 -221.0252 573.0
-302.976 -222.1824 576.0
-301.01227 -223.72531 580.0
-298.99246 -225.26826 584.0
-295.90656 -226.03972 586.0
-293.78854 -227.58266 590.0
-291.12347 -228.73985 593.0
-288.90027 -230.2828 597.0
-285.6671 -231.05426 599.0
-283.34567 -232.5972 603.0
-280.96817 -234.14012 607.0
-278.07867 -235.29732 610.0
-274.69824 -236.0688 612.0
-270.84793 -236.45451 613.0
-267.85324 -237.61171 616.0
-264.81647 -238.76892 619.0
-261.7376 -239.92612 622.0
-257.7891 -240.31186 623.0
-255.45367 -242.24051 628.0
-252.24857 -243.39772 631.0
-250.17963 -245.71211 637.0
-247.25508 -247.25507 641.0
-243.51697 -248.02652 643.0
-239.37912 -248.41226 644.0
-235.95659 -249.56946 647.0
-231.77666 -249.9552 648.0
-227.93333 -250.72665 650.0
-224.40562 -251.88387 653.0
-220.49922 -252.65532 655.0
-216.56473 -253.4268 657.0
-310.71872 -223.0801 568.0
-308.35522 -224.25833 571.0
-305.41663 -225.04384 573.0
-302.976 -226.22208 576.0
-301.01227 -227.79306 580.0
-298.48047 -228.9713 583.0
-295.90656 -230.14952 586.0
-293.2906 -231.32776 589.0
-291.12347 -232.89876 593.0
-288.90027 -234.46974 597.0
-286.144 -235.64798 600.0
-283.34567 -236.82623 603.0
-281.43106 -238.78995 608.0
-278.07867 -239.57545 610.0
-274.69824 -240.36095 612.0
-271.2898 -241.14645 614.0
-268.72287 -242.71744 618.0
-264.38864 -242.71744 618.0
-261.3168 -243.89568 621.0
-257.7891 -244.68115 623.0
-255.45367 -246.6449 628.0
-252.24857 -247.82314 631.0
-249.78688 -249.78687 636.0
-246.86934 -251.35786 640.0
-242.75954 -251.75058 641.0
-238.6357 -252.14334 642.0
-234.8625 -252.92885 644.0
-231.41896 -254.10709 647.0
-227.93333 -255.28532 650.0
-224.06198 -256.07083 652.0
-220.49922 -257.24905 655.0
-309.62466 -226.26416 566.0
-307.27518 -227.46346 569.0
-304.8836 -228.66273 572.0
-302.45 -229.862 575.0
-300.4933 -231.46106 579.0
-298.48047 -233.06009 583.0
-295.4016 -233.8596 585.0
-293.2906 -235.45866 589.0
-291.12347 -237.0577 593.0
-288.90027 -238.65672 597.0
-286.144 -239.856 600.0
-283.81558 -241.45506 604.0
-281.43106 -243.0541 608.0
-278.07867 -243.8536 610.0
-274.69824 -244.65314 612.0
-271.2898 -245.45267 614.0
-267.85324 -246.25217 616.0
-264.81647 -247.45146 619.0
-261.3168 -248.25096 621.0
-257.7891 -249.05049 623.0
-255.04689 -250.64954 627.0
-252.24857 -252.24857 631.0
-249.39415 -253.8476 635.0
-245.71214 -254.64713 637.0
-242.75954 -256.24615 641.0
-238.6357 -256.64594 642.0
-234.49782 -257.0457 643.0
-231.41896 -258.64474 647.0
-227.23201 -259.0445 648.0
-309.0776 -229.82693 565.0
-306.73517 -231.04727 568.0
-304.35062 -232.26758 571.0
-301.398 -233.08113 573.0
-300.4933 -235.52176 579.0
-297.45654 -236.33531 581.0
-295.90656 -238.36917 586.0
-293.2906 -239.58951 589.0
-291.12347 -241.21658 593.0
-288.90027 -242.84369 597.0
-286.6209 -244.47078 601.0
-283.81558 -245.6911 604.0
-281.43106 -247.31819 608.0
-278.07867 -248.13174 610.0
-274.69824 -248.9453 612.0
-271.2898 -249.75882 614.0
-267.4184 -250.1656 615.0
-264.81647 -251.79271 619.0
-260.896 -252.19948 620.0
-257.3753 -253.01302 622.0
-253.82658 -253.82657 624.0
-252.24857 -256.67398 631.0
-249.00139 -257.89432 634.0
-245.32642 -258.70786 636.0
-242.38081 -260.33493 640.0
-238.6357 -261.1485 642.0
-234.49782 -261.55527 643.0
-309.0776 -233.78946 565.0
-306.19513 -234.61703 567.0
-303.28458 -235.44461 569.0
-301.398 -237.09976 573.0
-300.4933 -239.58249 579.0
-297.45654 -240.41005 581.0
-296.41153 -242.89278 587.0
-294.2865 -244.54793 591.0
-291.6144 -245.78929 594.0
-289.3842 -247.44443 598.0
-286.6209 -248.68579 601.0
-283.81558 -249.92715 604.0
-281.43106 -251.5823 608.0
-278.07867 -252.40985 610.0
-274.69824 -253.23744 612.0
-271.2898 -254.06502 614.0
-267.4184 -254.4788 615.0
-264.38864 -255.72017 618.0
-260.896 -256.54773 620.0
-257.3753 -257.3753 622.0
-253.82658 -258.20288 624.0
-251.84882 -260.6856 630.0
-248.2159 -261.51318 632.0
-244.94067 -262.75455 635.0
-241.62337 -263.9959 638.0
-238.26399 -265.23724 641.0

