ply
format ascii 1.0
comment made by @arthurmuchir
element vertex 920
property float x
property float y
property float z
end_header
-103.096 -103.095985 588.0
-99.30881 -103.446655 590.0
-95.49356 -103.797325 592.0
-110.58624 -106.49044 584.0
-106.672806 -106.67279 585.0
-102.57001 -106.67279 585.0
-98.97217 -107.219826 588.0
-95.33225 -107.76687 591.0
-114.092926 -110.01818 581.0
-110.20752 -110.20753 582.0
-106.12576 -110.20753 582.0
-102.21934 -110.3969 583.0
-98.4672 -110.77561 585.0
-94.848335 -111.3437 588.0
-117.35411 -113.30743 577.0
-113.70017 -113.700165 579.0
-109.8288 -113.896545 580.0
-105.76107 -113.896545 580.0
-102.04401 -114.28928 582.0
-98.4672 -114.87841 585.0
-121.19041 -117.150734 576.0
-117.15073 -117.150734 576.0
-113.111046 -117.150734 576.0
-109.45007 -117.557495 578.0
-105.76107 -117.96427 580.0
-102.04401 -118.37105 582.0
-98.29889 -118.77781 584.0
-120.76961 -120.7696 574.0
-116.74396 -120.7696 574.0
-112.91468 -120.98 575.0
-109.63944 -121.8216 579.0
-105.76107 -122.032 580.0
-102.04401 -122.4528 582.0
-128.37206 -124.36042 572.0
-124.36043 -124.36042 572.0
-120.3488 -124.36042 572.0
-116.54057 -124.577835 573.0
-112.91468 -125.01266 575.0
-109.45007 -125.66491 578.0
-105.94341 -126.31714 581.0
-77.51137 -133.49179 614.0
-127.923195 -127.92319 570.0
-123.925606 -127.92319 570.0
-120.138405 -128.14763 571.0
-116.54057 -128.59647 573.0
-112.91468 -129.04533 575.0
-109.45007 -129.71861 578.0
-85.4224 -136.67584 609.0
-81.55105 -137.34912 612.0
-77.25889 -137.34912 612.0
-72.96671 -137.34912 612.0
-131.9208 -131.92079 570.0
-127.69878 -131.68935 569.0
-123.70818 -131.68935 569.0
-120.138405 -132.15224 571.0
-116.54057 -132.61511 573.0
-112.91468 -133.07799 575.0
-93.19317 -139.78975 604.0
-88.957115 -139.78975 604.0
-85.0016 -140.25262 606.0
-80.88478 -140.48407 607.0
-76.880165 -140.94695 609.0
-72.84748 -141.40982 611.0
-134.9646 -134.9646 566.0
-131.22649 -135.20305 567.0
-127.47434 -135.44151 568.0
-123.70818 -135.67996 569.0
-120.3488 -136.39532 572.0
-116.74396 -136.87222 574.0
-113.111046 -137.34914 576.0
-100.487045 -142.35664 597.0
-96.6227 -142.83357 599.0
-92.576 -143.072 600.0
-88.51528 -143.31047 601.0
-84.44054 -143.54892 602.0
-80.751526 -144.50273 606.0
-76.75394 -144.97963 608.0
-72.84748 -145.695 611.0
-138.68867 -138.68867 565.0
-134.72614 -138.68867 565.0
-130.76361 -138.68867 565.0
-127.0255 -138.93414 566.0
-123.490776 -139.42506 568.0
-120.138405 -140.16147 571.0
-116.54057 -140.65242 573.0
-100.318726 -146.29814 596.0
-96.30009 -146.54361 597.0
-92.2674 -146.78908 598.0
-88.22072 -147.03455 599.0
-84.30027 -147.52547 601.0
-80.48502 -148.26187 604.0
-76.75394 -149.24374 608.0
-142.6512 -142.6512 565.0
-138.68867 -142.6512 565.0
-134.72614 -142.6512 565.0
-130.76361 -142.6512 565.0
-126.80106 -142.6512 565.0
-123.27336 -143.15616 567.0
-119.928 -143.9136 570.0
-104.148 -149.97313 594.0
-100.150406 -150.2256 595.0
-95.97748 -150.2256 595.0
-91.95882 -150.47809 596.0
-88.22072 -151.23553 599.0
-84.30027 -151.74048 601.0
-80.48502 -152.49792 604.0
-147.13272 -147.13272 567.0
-142.6512 -146.61372 565.0
-138.4432 -146.35425 564.0
-134.48769 -146.35425 564.0
-130.76361 -146.61372 565.0
-127.0255 -146.87323 566.0
-123.490776 -147.39221 568.0
-119.717606 -147.6517 569.0
-115.46754 -152.58208 588.0
-111.7224 -153.10107 590.0
-107.58453 -153.10107 590.0
-103.44667 -153.10107 590.0
-99.64545 -153.62006 592.0
-95.65487 -153.87955 593.0
-91.80453 -154.39853 595.0
-88.22072 -155.43651 599.0
-84.30027 -155.95549 601.0
-150.57628 -150.57628 565.0
-145.83525 -149.77673 562.0
-141.89377 -149.77673 562.0
-138.19774 -150.04324 563.0
-134.48769 -150.30975 564.0
-130.76361 -150.57628 565.0
-126.80106 -150.57628 565.0
-123.490776 -151.3758 568.0
-115.07479 -156.17291 586.0
-110.96495 -156.17291 586.0
-107.21984 -156.70592 588.0
-103.27134 -156.97243 589.0
-99.47713 -157.50543 591.0
-95.65487 -158.03845 593.0
-91.95882 -158.83798 596.0
-153.44473 -153.44472 561.0
-149.24374 -153.1712 560.0
-145.57576 -153.44472 561.0
-141.89377 -153.71823 562.0
-137.95227 -153.71823 562.0
-134.72614 -154.5388 565.0
-130.99504 -154.81232 566.0
-127.249916 -155.08583 567.0
-119.18459 -160.28271 586.0
-114.68204 -159.73567 584.0
-110.58624 -159.73567 584.0
-106.672806 -160.0092 585.0
-103.096 -160.82976 588.0
-99.30881 -161.3768 590.0
-95.65487 -162.19736 593.0
-91.95882 -163.01791 596.0
-156.81815 -156.81813 559.0
-152.89769 -156.81813 559.0
-148.97725 -156.81813 559.0
-145.31627 -157.09866 560.0
-141.64128 -157.37918 561.0
-138.19774 -157.94026 563.0
-134.72614 -158.50133 565.0
-131.22649 -159.0624 567.0
-122.032005 -162.70934 580.0
-117.96427 -162.70934 580.0
-113.896545 -162.70934 580.0
-110.39687 -163.55093 583.0
-106.49045 -163.83145 584.0
-103.096 -164.95358 588.0
-99.14049 -165.23413 589.0
-164.06992 -160.16348 557.0
-160.1635 -160.16348 557.0
-155.97653 -159.87593 556.0
-152.35065 -160.16348 557.0
-148.44423 -160.16348 557.0
-145.05676 -160.73857 559.0
-141.64128 -161.31367 561.0
-137.95227 -161.60121 562.0
-134.72614 -162.46385 565.0
-131.22649 -163.03896 567.0
-130.16747 -166.77705 580.0
-126.09974 -166.77705 580.0
-121.8216 -166.4895 579.0
-117.760895 -166.4895 579.0
-113.896545 -166.77705 580.0
-110.01815 -167.0646 581.0
-106.49045 -167.92723 584.0
-102.92067 -168.78989 587.0
-99.14049 -169.36497 589.0
-174.8424 -163.18625 554.0
-171.26561 -163.48082 555.0
-167.3732 -163.48082 555.0
-163.18623 -163.18625 554.0
-159.58841 -163.48082 555.0
-155.41547 -163.18625 554.0
-151.53009 -163.18625 554.0
-148.17772 -163.77536 556.0
-144.79727 -164.3645 558.0
-141.13632 -164.65904 559.0
-137.7068 -165.24817 561.0
-134.72614 -166.4264 565.0
-130.99504 -166.72096 566.0
-128.59648 -168.7829 573.0
-125.447495 -169.96114 577.0
-121.4008 -169.96114 577.0
-117.5575 -170.25569 578.0
-113.896545 -170.84482 580.0
-110.01815 -171.13937 581.0
-106.49045 -172.02304 584.0
-181.6243 -166.16692 551.0
-177.75995 -166.16692 551.0
-174.21121 -166.46848 552.0
-170.33984 -166.46848 552.0
-166.46849 -166.46848 552.0
-162.89168 -166.77007 553.0
-159.30086 -167.07164 554.0
-155.41547 -167.07164 554.0
-151.53009 -167.07164 554.0
-148.17772 -167.67477 556.0
-144.53778 -167.97635 557.0
-140.88383 -168.27792 558.0
-137.7068 -169.18265 561.0
-134.72614 -170.38895 565.0
-130.99504 -170.69052 566.0
-127.69878 -171.59523 569.0
-124.79525 -173.1031 574.0
-121.19041 -173.70625 576.0
-117.35411 -174.00783 577.0
-113.70017 -174.61096 579.0
-110.01815 -175.21411 581.0
-71.05909 -179.73772 596.0
-63.120003 -180.94402 600.0
-59.010197 -181.24557 601.0
-54.79518 -181.24557 601.0
-183.80545 -168.48831 546.0
-179.64655 -168.17975 545.0
-177.11472 -169.41408 549.0
-173.58 -169.72267 550.0
-169.72267 -169.72267 550.0
-165.86534 -169.72267 550.0
-162.30257 -170.03127 551.0
-158.72577 -170.33984 552.0
-155.13493 -170.64844 553.0
-151.53009 -170.95702 554.0
-147.64471 -170.95702 554.0
-144.53778 -171.88278 557.0
-140.88383 -172.19136 558.0
-137.46133 -172.80855 560.0
-134.24924 -173.7343 563.0
-130.99504 -174.66006 566.0
-127.47434 -175.27724 568.0
-124.36043 -176.51158 572.0
-120.76961 -177.12875 574.0
-117.35411 -178.0545 577.0
-113.70017 -178.67168 579.0
-82.75734 -182.06615 590.0
-78.61947 -182.06615 590.0
-74.86034 -182.9919 593.0
-70.93986 -183.60907 595.0
-66.76693 -183.60907 595.0
-62.699203 -183.91766 596.0
-58.81382 -184.84341 599.0
-54.79518 -185.46059 601.0
-186.94743 -171.6864 544.0
-182.79553 -171.3708 543.0
-178.32803 -170.7396 541.0
-172.92075 -169.1616 536.0
-168.53041 -168.5304 534.0
-165.09387 -168.846 535.0
-161.64331 -169.1616 536.0
-157.88416 -169.1616 536.0
-154.41257 -169.4772 537.0
-150.36588 -169.1616 536.0
-146.60674 -169.1616 536.0
-147.64471 -174.8424 554.0
-144.53778 -175.7892 557.0
-140.88383 -176.1048 558.0
-137.7068 -177.0516 561.0
-134.24924 -177.6828 563.0
-130.76361 -178.314 565.0
-127.47434 -179.2608 568.0
-124.14301 -180.2076 571.0
-120.559204 -180.8388 573.0
-117.15073 -181.7856 576.0
-94.36441 -184.626 585.0
-90.415886 -184.9416 586.0
-86.45336 -185.2572 587.0
-82.47681 -185.5728 588.0
-78.48622 -185.8884 589.0
-74.48161 -186.204 590.0
-70.582184 -186.8352 592.0
-66.5425 -187.1508 593.0
-62.699203 -188.0976 596.0
-58.617447 -188.4132 597.0
-190.412 -175.17903 543.0
-183.5109 -172.27551 534.0
-179.76578 -172.27551 534.0
-174.70213 -170.98506 530.0
-170.98508 -170.98506 530.0
-167.5836 -171.30768 531.0
-163.55093 -170.98506 530.0
-160.13545 -171.30768 531.0
-156.70592 -171.6303 532.0
-153.54991 -172.27551 534.0
-149.80481 -172.27551 534.0
-146.0597 -172.27551 534.0
-142.31458 -172.27551 534.0
-138.56944 -172.27551 534.0
-135.32928 -172.92075 536.0
-137.7068 -180.98608 561.0
-134.24924 -181.6313 563.0
-130.76361 -182.27654 565.0
-127.47434 -183.24437 568.0
-123.70818 -183.56699 569.0
-120.559204 -184.85744 573.0
-116.54057 -184.85744 573.0
-105.39637 -186.4705 578.0
-101.69334 -187.11572 580.0
-97.6256 -187.11572 580.0
-93.71919 -187.43834 581.0
-89.953 -188.08356 583.0
-86.158806 -188.7288 585.0
-82.056 -188.7288 585.0
-78.21971 -189.37402 587.0
-74.22913 -189.69664 588.0
-70.582184 -190.98709 592.0
-66.5425 -191.30971 593.0
-62.488804 -191.63232 594.0
-58.51926 -192.27754 596.0
-187.25601 -176.02063 534.0
-183.16724 -175.69101 533.0
-178.08258 -174.37251 529.0
-174.04288 -174.04288 528.0
-170.01723 -173.71324 527.0
-166.63681 -174.04288 528.0
-162.62518 -173.71324 527.0
-159.23074 -174.04288 528.0
-155.82224 -174.37251 529.0
-152.39973 -174.70213 530.0
-148.68268 -174.70213 530.0
-145.23914 -175.03175 531.0
-141.78156 -175.36137 532.0
-138.30994 -175.69101 533.0
-134.82433 -176.02063 534.0
-132.06107 -177.33914 538.0
-134.01079 -185.25018 562.0
-130.76361 -186.23906 565.0
-127.0255 -186.56868 566.0
-123.490776 -187.22794 568.0
-119.928 -187.88719 570.0
-116.54057 -188.87607 573.0
-112.91468 -189.53532 575.0
-109.07136 -189.86496 576.0
-105.031685 -189.86496 576.0
-101.167336 -190.19458 577.0
-97.45729 -190.85384 579.0
-93.55788 -191.18346 580.0
-89.64442 -191.51308 581.0
-85.864235 -192.17235 583.0
-82.056 -192.83159 585.0
-78.21971 -193.49084 587.0
-74.22913 -193.82047 588.0
-70.582184 -195.13898 592.0
-66.5425 -195.46861 593.0
-194.74623 -179.76575 534.0
-191.00111 -179.76575 534.0
-185.85333 -178.41919 530.0
-181.44896 -177.74591 528.0
-177.40929 -177.40927 527.0
-173.38364 -177.07263 526.0
-169.69461 -177.07263 526.0
-166.0056 -177.07263 526.0
-162.3166 -177.07263 526.0
-158.92915 -177.40927 527.0
-155.52768 -177.74591 528.0
-152.11218 -178.08255 529.0
-148.40215 -178.08255 529.0
-144.9656 -178.41919 530.0
-141.24855 -178.41919 530.0
-138.05045 -179.09247 532.0
-134.57184 -179.42911 533.0
-131.07921 -179.76575 534.0
-127.57254 -180.10239 535.0
-130.53217 -189.86496 564.0
-126.80106 -190.20158 565.0
-123.05595 -190.53824 566.0
-119.717606 -191.54816 569.0
-116.33718 -192.55807 572.0
-112.521935 -192.8947 573.0
-108.50327 -192.8947 573.0
-104.666985 -193.23135 574.0
-100.81667 -193.568 575.0
-96.952324 -193.90463 576.0
-93.23527 -194.57791 578.0
-89.49013 -195.25119 580.0
-85.864235 -196.26111 583.0
-82.056 -196.93439 585.0
-78.35297 -197.9443 588.0
-203.37265 -184.54185 537.0
-199.23479 -184.1982 536.0
-194.74623 -183.5109 534.0
-189.5704 -182.13629 530.0
-185.15201 -181.44897 528.0
-180.76167 -180.76166 526.0
-176.73601 -180.41801 525.0
-173.054 -180.41801 525.0
-169.37201 -180.41801 525.0
-165.69 -180.41801 525.0
-162.3166 -180.76166 526.0
-158.92915 -181.10532 527.0
-155.52768 -181.44897 528.0
-152.11218 -181.79262 529.0
-148.40215 -181.79262 529.0
-144.6921 -181.79262 529.0
-140.98204 -181.79262 529.0
-137.53146 -182.13629 530.0
-134.31937 -182.8236 532.0
-131.07921 -183.5109 534.0
-127.57254 -183.85454 535.0
-124.51473 -184.88551 538.0
-121.1904 -185.57281 540.0
-122.83854 -194.16414 565.0
-119.5072 -195.19511 568.0
-115.930405 -195.88242 570.0
-112.12918 -196.22607 571.0
-108.31392 -196.56972 572.0
-104.48464 -196.91338 573.0
-100.641335 -197.25702 574.0
-96.784004 -197.60068 575.0
-93.07396 -198.288 577.0
-89.49013 -199.31894 580.0
-85.864235 -200.34991 583.0
-207.13881 -188.30801 537.0
-202.2365 -187.25601 534.0
-196.63284 -185.50267 529.0
-192.55807 -185.15201 528.0
-187.78201 -184.1 525.0
-183.74934 -183.74934 524.0
-179.7307 -183.39867 523.0
-176.06274 -183.39867 523.0
-172.39474 -183.39867 523.0
-169.0494 -183.74934 524.0
-165.69 -184.1 525.0
-162.3166 -184.45067 526.0
-158.92915 -184.80135 527.0
-155.82224 -185.50267 529.0
-152.11218 -185.50267 529.0
-148.40215 -185.50267 529.0
-144.9656 -185.85335 530.0
-141.24855 -185.85335 530.0
-137.53146 -185.85335 530.0
-134.31937 -186.55467 532.0
-130.83374 -186.90533 533.0
-127.33409 -187.25601 534.0
-124.283295 -188.30801 537.0
-120.96597 -189.00934 539.0
-117.403206 -189.36002 540.0
-113.8264 -189.71068 541.0
-115.523636 -199.17867 568.0
-111.736435 -199.52934 569.0
-107.935196 -199.88002 570.0
-104.30229 -200.58134 572.0
-100.466 -200.932 573.0
-96.784004 -201.63335 575.0
-247.53561 -194.22025 543.0
-244.62508 -194.9356 545.0
-221.28471 -194.57793 544.0
-210.11948 -191.3588 535.0
-205.98161 -191.00113 534.0
-200.3429 -189.21274 529.0
-195.88943 -188.49736 527.0
-191.0993 -187.42433 524.0
-187.06665 -187.06665 523.0
-183.048 -186.70897 522.0
-179.0434 -186.35129 521.0
-175.38945 -186.35129 521.0
-172.06512 -186.70897 522.0
-169.0494 -187.42433 524.0
-165.69 -187.782 525.0
-162.3166 -188.13968 526.0
-158.92915 -188.49736 527.0
-155.82224 -189.21274 529.0
-152.68727 -189.92809 531.0
-148.96321 -189.92809 531.0
-145.23914 -189.92809 531.0
-141.51505 -189.92809 531.0
-137.53146 -189.5704 530.0
-134.57184 -190.64345 533.0
-131.07921 -191.00113 534.0
-127.33409 -191.00113 534.0
-123.82041 -191.3588 535.0
-120.51712 -192.07416 537.0
-117.18578 -192.78954 539.0
-113.616005 -193.1472 540.0
-109.828804 -193.1472 540.0
-111.736435 -203.51993 569.0
-107.935196 -203.8776 570.0
-104.30229 -204.59297 572.0
-100.466 -204.95065 573.0
-248.57356 -192.92278 529.0
-245.32642 -193.28748 530.0
-247.07974 -197.66379 542.0
-244.62508 -198.75787 545.0
-241.6865 -199.48726 547.0
-231.87483 -197.66379 542.0
-228.9152 -198.39317 544.0
-224.68616 -198.02849 543.0
-218.4373 -195.84032 537.0
-214.27136 -195.47562 536.0
-209.33398 -194.38156 533.0
-204.43867 -193.28748 530.0
-199.58545 -192.19339 527.0
-195.14601 -191.464 525.0
-190.7346 -190.73462 523.0
-186.35127 -190.00522 521.0
-182.69734 -190.00522 521.0
-179.0434 -190.00522 521.0
-175.38945 -190.00522 521.0
-172.06512 -190.36992 522.0
-169.0494 -191.0993 524.0
-165.69 -191.464 525.0
-162.3166 -191.82869 526.0
-159.23074 -192.55809 528.0
-156.70592 -194.01686 532.0
-153.54991 -194.74625 534.0
-149.80481 -194.74625 534.0
-150.70953 -200.94603 551.0
-147.1117 -201.31071 552.0
-143.4998 -201.67542 553.0
-139.87392 -202.0401 554.0
-131.32468 -195.11093 535.0
-127.33409 -194.74625 534.0
-123.82041 -195.11093 535.0
-120.292694 -195.47562 536.0
-116.75096 -195.84032 537.0
-113.616005 -196.9344 540.0
-109.828804 -196.9344 540.0
-269.29797 -195.5177 526.0
-265.104 -195.146 525.0
-261.422 -195.146 525.0
-257.74002 -195.146 525.0
-254.54195 -195.5177 526.0
-249.89911 -194.77429 524.0
-246.69402 -195.146 525.0
-243.93776 -195.8894 527.0
-241.15347 -196.63283 529.0
-244.17622 -202.20842 544.0
-240.36098 -202.20842 544.0
-234.80641 -200.7216 540.0
-231.01921 -200.7216 540.0
-225.9696 -199.60648 537.0
-221.78967 -199.23477 536.0
-217.62375 -198.86307 535.0
-213.47183 -198.49135 534.0
-208.15575 -197.00453 530.0
-203.6672 -196.26112 528.0
-198.828 -195.146 525.0
-194.4026 -194.40259 523.0
-190.00523 -193.65918 521.0
-186.35127 -193.65918 521.0
-182.69734 -193.65918 521.0
-179.0434 -193.65918 521.0
-175.38945 -193.65918 521.0
-172.39474 -194.40259 523.0
-169.0494 -194.77429 524.0
-165.69 -195.146 525.0
-162.62518 -195.8894 527.0
-159.23074 -196.26112 528.0
-157.00047 -198.11964 533.0
-157.28802 -203.32355 547.0
-154.0128 -204.06696 549.0
-150.436 -204.43867 550.0
-146.84518 -204.81038 551.0
-143.24033 -205.18208 552.0
-139.87392 -205.92549 554.0
-135.98854 -205.92549 554.0
-132.10316 -205.92549 554.0
-124.05185 -199.23477 536.0
-120.292694 -199.23477 536.0
-121.75147 -208.15573 560.0
-118.0344 -208.52744 561.0
-275.06296 -200.7216 530.0
-267.2501 -197.69183 522.0
-263.5891 -197.69183 522.0
-259.4302 -197.31311 521.0
-255.77628 -197.31311 521.0
-252.12234 -197.31311 521.0
-248.9453 -197.69183 522.0
-244.81444 -197.31311 521.0
-241.16048 -197.31311 521.0
-239.33 -198.828 525.0
-241.4831 -203.75136 538.0
-238.59361 -204.5088 540.0
-234.37157 -204.13007 539.0
-229.73576 -203.37263 537.0
-225.54881 -202.99391 536.0
-220.9621 -202.23647 534.0
-217.21698 -202.23647 534.0
-212.67232 -201.47903 532.0
-207.76299 -200.34286 529.0
-203.28148 -199.58543 527.0
-198.828 -198.828 525.0
-194.4026 -198.07056 523.0
-190.00523 -197.31311 521.0
-186.35127 -197.31311 521.0
-182.69734 -197.31311 521.0
-179.0434 -197.31311 521.0
-175.38945 -197.31311 521.0
-172.39474 -198.07056 523.0
-169.0494 -198.44926 524.0
-166.0056 -199.20671 526.0
-162.93376 -199.96416 528.0
-159.83388 -200.7216 530.0
-160.24063 -206.02367 544.0
-157.00047 -206.78111 546.0
-153.45174 -207.15984 547.0
-149.88896 -207.53856 548.0
-146.31218 -207.91727 549.0
-142.98083 -208.67471 551.0
-139.11649 -208.67471 551.0
-135.4976 -209.05344 552.0
-131.62625 -209.05344 552.0
-128.21777 -209.81087 554.0
-124.332375 -209.81087 554.0
-121.09923 -210.94704 557.0
-117.403206 -211.32576 558.0
-282.8197 -199.42413 517.0
-281.3539 -200.96706 521.0
-281.43106 -203.66719 528.0
-272.99402 -200.19559 519.0
-268.31613 -199.42413 517.0
-265.2022 -199.80986 518.0
-262.07425 -200.19559 519.0
-257.43845 -199.42413 517.0
-253.81255 -199.42413 517.0
-250.18665 -199.42413 517.0
-246.08385 -199.03839 516.0
-242.93486 -199.42413 517.0
-239.30896 -199.42413 517.0
-243.43282 -205.98158 534.0
-239.6877 -205.98158 534.0
-236.38441 -206.36732 535.0
-232.19743 -205.98158 534.0
-228.45232 -205.98158 534.0
-224.70721 -205.98158 534.0
-219.72073 -204.82439 531.0
-215.99666 -204.82439 531.0
-211.8728 -204.43866 530.0
-207.76299 -204.05293 529.0
-202.89574 -202.89574 526.0
-198.828 -202.51 525.0
-194.4026 -201.73853 523.0
-190.00523 -200.96706 521.0
-186.35127 -200.96706 521.0
-182.69734 -200.96706 521.0
-179.0434 -200.96706 521.0
-175.72609 -201.35278 522.0
-172.72437 -202.12425 524.0
-169.37201 -202.51 525.0
-166.32121 -203.28146 527.0
-163.24236 -204.05293 529.0
-163.75433 -209.45319 543.0
-159.94608 -209.45319 543.0
-156.42538 -209.83893 544.0
-153.1712 -210.61038 546.0
-149.34193 -210.61038 546.0
-145.77916 -210.99612 547.0
-142.46184 -211.7676 549.0
-138.61151 -211.7676 549.0
-135.00667 -212.15334 550.0
-131.38779 -212.53906 551.0
-127.523445 -212.53906 551.0
-124.10794 -213.31053 553.0
-120.44698 -213.69626 554.0
-116.772 -214.08199 555.0
-112.8796 -214.08199 555.0
-109.18358 -214.46773 556.0
-281.1786 -201.87178 514.0
-277.5737 -201.87178 514.0
-275.03488 -202.65727 516.0
-271.94202 -203.05 517.0
-268.31613 -203.05 517.0
-264.17825 -202.65727 516.0
-259.54944 -201.87178 514.0
-255.44666 -201.47902 513.0
-252.33974 -201.87178 514.0
-248.7349 -201.87178 514.0
-245.13005 -201.87178 514.0
-241.52516 -201.87178 514.0
-238.84608 -202.65727 516.0
-242.97694 -209.33397 533.0
-239.23883 -209.33397 533.0
-235.50073 -209.33397 533.0
-231.76262 -209.33397 533.0
-228.02452 -209.33397 533.0
-223.44481 -208.54848 531.0
-219.30695 -208.15572 530.0
-215.18312 -207.76297 529.0
-211.47304 -207.76297 529.0
-207.37025 -207.37022 528.0
-202.89574 -206.58475 526.0
-198.4493 -205.79924 524.0
-194.4026 -205.4065 523.0
-190.00523 -204.621 521.0
-186.35127 -204.621 521.0
-182.69734 -204.621 521.0
-179.38705 -205.01375 522.0
-176.39938 -205.79924 524.0
-173.054 -206.19199 525.0
-169.69461 -206.58475 526.0
-166.63681 -207.37022 528.0
-166.63681 -212.08319 540.0
-163.15118 -212.47592 541.0
-159.65152 -212.86868 542.0
-156.13785 -213.26143 543.0
-152.61014 -213.65417 544.0
-149.34193 -214.43967 546.0
-145.51265 -214.43967 546.0
-141.94286 -214.83241 547.0
-138.10657 -214.83241 547.0
-134.27028 -214.83241 547.0
-130.91089 -215.6179 549.0
-127.292015 -216.01067 550.0
-123.659096 -216.40341 551.0
-120.229576 -217.18889 553.0
-116.56161 -217.58165 554.0
-112.67622 -217.58165 554.0
-108.79083 -217.58165 554.0
-105.094795 -217.97438 555.0
-101.2024 -217.97438 555.0
-97.13467 -217.58165 554.0
-93.24929 -217.58165 554.0
-89.686516 -218.36713 556.0
-279.53745 -204.27736 511.0
-275.95364 -204.27736 511.0
-272.90283 -204.67712 512.0
-269.312 -204.67712 512.0
-263.64523 -203.0781 508.0
-260.08246 -203.0781 508.0
-257.02463 -203.47784 509.0
-253.45485 -203.47784 509.0
-249.88507 -203.47784 509.0
-246.79921 -203.87761 510.0
-243.69933 -204.27736 511.0
-240.1155 -204.27736 511.0
-236.99457 -204.67712 512.0
-242.97694 -213.0721 533.0
-238.78998 -212.67233 532.0
-234.61705 -212.27257 531.0
-230.89296 -212.27257 531.0
-227.16888 -212.27257 531.0
-223.024 -211.87282 530.0
-218.89316 -211.47305 529.0
-215.18312 -211.47305 529.0
-211.07327 -211.0733 528.0
-206.9775 -210.67352 527.0
-202.89574 -210.27376 526.0
-198.828 -209.87401 525.0
-194.7743 -209.47424 524.0
-190.7346 -209.0745 523.0
-186.70897 -208.67473 522.0
-183.39867 -209.0745 523.0
-180.07436 -209.47424 524.0
-176.73601 -209.87401 525.0
-173.71326 -210.67352 527.0
-170.01723 -210.67352 527.0
-170.10841 -215.47066 539.0
-166.63681 -215.8704 540.0
-162.84961 -215.8704 540.0
-159.06241 -215.8704 540.0
-155.8503 -216.66994 542.0
-152.3296 -217.0697 543.0
-148.79489 -217.46947 544.0
-144.97964 -217.46947 544.0
-141.68336 -218.26897 546.0
-137.85408 -218.26897 546.0
-134.02481 -218.26897 546.0
-130.43398 -218.66873 547.0
-126.82913 -219.0685 548.0
-123.43466 -219.868 550.0
-120.01216 -220.66753 552.0
-116.1408 -220.66753 552.0
-112.26945 -220.66753 552.0
-108.20171 -220.26776 551.0
-104.33736 -220.26776 551.0
-100.83771 -221.06729 553.0
-96.959335 -221.06729 553.0
-93.24929 -221.46706 554.0
-89.525215 -221.8668 555.0
-85.6328 -221.8668 555.0
-81.88768 -222.26657 556.0
-78.12853 -222.66634 557.0
-74.35537 -223.0661 558.0
-70.441925 -223.0661 558.0
-66.6477 -223.46587 559.0
-277.3493 -206.23409 507.0
-273.79352 -206.23409 507.0
-269.17175 -205.42055 505.0
-266.156 -205.82732 506.0
-262.0883 -205.42055 505.0
-259.05853 -205.82732 506.0
-255.0048 -205.42055 505.0
-251.96101 -205.82732 506.0
-248.90321 -206.23409 507.0
-245.34746 -206.23409 507.0
-242.2686 -206.64085 508.0
-239.64561 -207.4544 510.0
-236.53168 -207.86118 511.0
-235.2272 -209.89505 516.0
-237.44344 -215.18309 529.0
-233.73338 -215.18309 529.0
-230.0233 -215.18309 529.0
-226.31325 -215.18309 529.0
-222.1824 -214.77634 528.0
-218.47937 -214.77634 528.0
-214.36957 -214.36955 527.0
-210.67352 -214.36955 527.0
-206.9775 -214.36955 527.0
-202.89574 -213.96278 526.0
-198.828 -213.55602 525.0
-194.7743 -213.14923 524.0
-191.0993 -213.14923 524.0
-187.42432 -213.14923 524.0
-184.1 -213.55602 525.0
-180.76167 -213.96278 526.0
-177.74594 -214.77634 528.0
-176.02063 -217.21696 534.0
-173.24336 -218.4373 537.0
-169.7928 -218.84407 538.0
-166.32823 -219.25082 539.0
-162.84961 -219.6576 540.0
-159.06241 -219.6576 540.0
-155.2752 -219.6576 540.0
-151.488 -219.6576 540.0
-147.97433 -220.06438 541.0
-144.71313 -220.87793 543.0
-140.90488 -220.87793 543.0
-137.85408 -222.09824 546.0
-134.02481 -222.09824 546.0
-130.19553 -222.09824 546.0
-126.597694 -222.505 547.0
-123.210236 -223.31856 549.0
-119.57734 -223.72534 550.0
-115.930405 -224.13213 551.0
-112.06606 -224.13213 551.0
-108.00535 -223.72534 550.0
-104.147995 -223.72534 550.0
-100.473015 -224.13213 551.0
-96.784004 -224.5389 552.0
-93.08097 -224.94568 553.0
-89.3639 -225.35242 554.0
-85.47851 -225.35242 554.0
-81.59312 -225.35242 554.0
-77.848 -225.7592 555.0
-74.08886 -226.16597 556.0
-70.31569 -226.57275 557.0
-66.52847 -226.97954 558.0
-62.95168 -228.19983 561.0
-274.6141 -207.7209 502.0
-271.09338 -207.7209 502.0
-267.5727 -207.7209 502.0
-264.052 -207.7209 502.0
-260.5313 -207.7209 502.0
-257.5226 -208.13469 503.0
-254.49983 -208.54848 504.0
-251.46307 -208.96227 505.0
-248.41228 -209.37605 506.0
-244.86354 -209.37605 506.0
-241.31479 -209.37605 506.0
-238.70581 -210.20364 508.0
-236.53168 -211.44499 511.0
-232.94788 -211.44499 511.0
-235.64801 -217.238 525.0
-232.8497 -218.06558 527.0
-229.15366 -218.06558 527.0
-225.45763 -218.06558 527.0
-221.76161 -218.06558 527.0
-218.06558 -218.06558 527.0
-214.36957 -218.06558 527.0
-210.67352 -218.06558 527.0
-206.9775 -218.06558 527.0
-202.89574 -217.6518 526.0
-199.20674 -217.6518 526.0
-195.14601 -217.238 525.0
-191.0993 -216.82422 524.0
-187.78201 -217.238 525.0
-184.45067 -217.6518 526.0
-181.44896 -218.47937 528.0
-179.76578 -220.9621 534.0
-176.35027 -221.37585 535.0
-173.24336 -222.20343 537.0
-169.4772 -222.20343 537.0
-166.01962 -222.61722 538.0
-162.24648 -222.61722 538.0
-158.47328 -222.61722 538.0
-155.2752 -223.4448 540.0
-151.488 -223.4448 540.0
-147.7008 -223.4448 540.0
-144.44662 -224.27237 542.0
-140.90488 -224.68617 543.0
-137.85408 -225.92754 546.0
-134.02481 -225.92754 546.0
-130.19553 -225.92754 546.0
-126.597694 -226.34132 547.0
-123.210236 -227.1689 549.0
-119.79475 -227.99644 551.0
-115.930405 -227.99644 551.0
-112.06606 -227.99644 551.0
-108.00535 -227.58266 550.0
-104.33736 -227.99644 551.0
-100.473015 -227.99644 551.0
-96.60867 -227.99644 551.0
-92.74432 -227.99644 551.0
-89.04129 -228.41023 552.0
-85.3242 -228.82402 553.0
-81.59312 -229.23781 554.0
-77.70773 -229.23781 554.0
-73.955605 -229.6516 555.0
-70.18945 -230.06538 556.0
-66.40925 -230.47917 557.0
-62.615036 -230.89296 558.0

