ply
format ascii 1.0
comment made by @arthurmuchir
element vertex 937
property float x
property float y
property float z
end_header
-143.40865 -123.49076 568.0
-130.99504 -123.05594 566.0
-156.17993 -128.14763 571.0
-151.64232 -127.69876 569.0
-147.13272 -127.249916 567.0
-142.90369 -127.02548 566.0
-137.7068 -125.90335 561.0
-133.53387 -125.67893 560.0
-130.06929 -126.12778 562.0
-126.80106 -126.801056 565.0
-123.27336 -127.249916 567.0
-70.10528 -131.96288 588.0
-66.09365 -132.18729 589.0
-160.18454 -132.15224 571.0
-155.9064 -131.92079 570.0
-150.84279 -130.99504 566.0
-146.61374 -130.76358 565.0
-141.64128 -129.83783 561.0
-137.21587 -129.37495 559.0
-133.29543 -129.37495 559.0
-129.83784 -129.83783 561.0
-126.35221 -130.3007 563.0
-123.27336 -131.22647 567.0
-77.819954 -135.16095 584.0
-73.976654 -135.62383 586.0
-69.986046 -135.85527 587.0
-65.98144 -136.0867 588.0
-61.962803 -136.31815 589.0
-164.4767 -136.39532 572.0
-159.62347 -135.67996 569.0
-155.63289 -135.67996 569.0
-150.57628 -134.72614 565.0
-146.61374 -134.72614 565.0
-138.61151 -130.91089 549.0
-134.7612 -130.91089 549.0
-131.14934 -131.14934 550.0
-128.21777 -132.10315 554.0
-125.90336 -133.77232 561.0
-123.05595 -134.9646 566.0
-119.5072 -135.44151 568.0
-115.523636 -135.44151 568.0
-111.54007 -135.44151 568.0
-86.30608 -139.73367 586.0
-82.056 -139.49521 585.0
-77.9532 -139.49521 585.0
-73.85041 -139.49521 585.0
-69.7476 -139.49521 585.0
-65.869225 -139.97212 587.0
-61.962803 -140.44902 589.0
-163.18623 -135.98854 554.0
-160.1635 -136.72495 557.0
-156.81815 -137.21587 559.0
-152.62416 -136.97041 558.0
-148.71074 -136.97041 558.0
-140.90488 -133.2884 543.0
-137.34912 -133.53387 544.0
-134.02481 -134.02481 546.0
-130.67244 -134.51575 548.0
-127.75489 -135.49762 552.0
-124.55679 -136.23401 555.0
-121.53405 -137.21587 559.0
-119.0864 -138.93414 566.0
-114.50671 -138.19774 563.0
-111.34369 -139.17961 567.0
-107.74584 -139.67055 569.0
-94.36441 -143.598 585.0
-90.2616 -143.598 585.0
-86.158806 -143.598 585.0
-81.91573 -143.35254 584.0
-77.819954 -143.35254 584.0
-73.72417 -143.35254 584.0
-69.7476 -143.598 585.0
-65.6448 -143.598 585.0
-178.40518 -139.62144 553.0
-173.8956 -139.11649 551.0
-169.72267 -138.864 550.0
-166.16692 -139.11649 551.0
-162.59712 -139.36897 552.0
-159.01332 -139.62144 553.0
-155.41547 -139.87393 554.0
-151.53009 -139.87393 554.0
-147.64471 -139.87393 554.0
-139.08842 -135.32928 536.0
-136.08672 -136.08673 539.0
-132.552 -136.3392 540.0
-130.19553 -137.85408 546.0
-126.82913 -138.35905 548.0
-124.10794 -139.62144 553.0
-120.44698 -139.87393 554.0
-116.98241 -140.37888 556.0
-113.286385 -140.63136 557.0
-109.57633 -140.88385 558.0
-106.988396 -142.6512 565.0
-98.4672 -147.7008 585.0
-94.2031 -147.44833 584.0
-90.10731 -147.44833 584.0
-85.864235 -147.19585 583.0
-81.77547 -147.19585 583.0
-77.819954 -147.44833 584.0
-73.85041 -147.7008 585.0
-69.7476 -147.7008 585.0
-184.14209 -141.94286 547.0
-180.30579 -141.94286 547.0
-176.4695 -141.94286 547.0
-172.63321 -141.94286 547.0
-169.1055 -142.20235 548.0
-165.56378 -142.46185 549.0
-162.00801 -142.72133 550.0
-158.4382 -142.98082 551.0
-154.8544 -143.24031 552.0
-150.70953 -142.98082 551.0
-147.3782 -143.49982 553.0
-138.30994 -138.30995 533.0
-134.82433 -138.56944 534.0
-132.30653 -139.86691 539.0
-129.48016 -140.90488 543.0
-126.82913 -142.20235 548.0
-123.43466 -142.72133 550.0
-118.925095 -141.94286 547.0
-115.509605 -142.46185 549.0
-112.26945 -143.24031 552.0
-109.18358 -144.27829 556.0
-102.39467 -151.54411 584.0
-98.29889 -151.54411 584.0
-94.0418 -151.2846 583.0
-89.79871 -151.02512 582.0
-85.864235 -151.2846 583.0
-81.77547 -151.2846 583.0
-77.819954 -151.54411 584.0
-73.85041 -151.8036 585.0
-187.29108 -145.24612 545.0
-183.80545 -145.51263 546.0
-179.64655 -145.24612 545.0
-175.82428 -145.24612 545.0
-172.31761 -145.51263 546.0
-168.48834 -145.51263 546.0
-164.96063 -145.77914 547.0
-161.71342 -146.31215 549.0
-158.15067 -146.57867 550.0
-154.57387 -146.84518 551.0
-150.70953 -146.84518 551.0
-147.1117 -147.11168 552.0
-137.53146 -141.24854 530.0
-134.31937 -141.78154 532.0
-131.8156 -143.11409 537.0
-129.24171 -144.44661 542.0
-120.51712 -143.11409 537.0
-117.403206 -143.9136 540.0
-114.036804 -144.44661 542.0
-111.659294 -146.31215 549.0
-108.20171 -146.84518 551.0
-110.01815 -154.84038 581.0
-106.308105 -155.37338 583.0
-102.39467 -155.6399 584.0
-98.29889 -155.6399 584.0
-94.0418 -155.37338 583.0
-89.79871 -155.10689 582.0
-85.864235 -155.37338 583.0
-81.91573 -155.6399 584.0
-77.9532 -155.9064 585.0
-190.412 -148.52135 543.0
-186.60376 -148.52135 543.0
-182.4589 -148.24783 542.0
-178.65765 -148.24783 542.0
-175.17905 -148.52135 543.0
-172.31761 -149.34192 546.0
-168.48834 -149.34192 546.0
-164.96063 -149.61543 547.0
-161.12431 -149.61543 547.0
-157.57558 -149.88895 548.0
-154.29333 -150.436 550.0
-150.70953 -150.70952 551.0
-140.71553 -144.41855 528.0
-137.01248 -144.41855 528.0
-133.56192 -144.69206 529.0
-131.32468 -146.3332 535.0
-120.292694 -146.60672 536.0
-116.968376 -147.15375 538.0
-113.616005 -147.7008 540.0
-111.25252 -149.61543 547.0
-108.00535 -150.436 550.0
-109.8288 -158.6416 580.0
-105.94341 -158.91512 581.0
-102.39467 -159.73567 584.0
-98.29889 -159.73567 584.0
-94.2031 -159.73567 584.0
-89.953 -159.46216 583.0
-85.864235 -159.46216 583.0
-189.71068 -151.76852 541.0
-185.5728 -151.48799 540.0
-181.78561 -151.48799 540.0
-177.99841 -151.48799 540.0
-174.21121 -151.48799 540.0
-171.3708 -152.32959 543.0
-168.48834 -153.17119 546.0
-164.96063 -153.45174 547.0
-161.12431 -153.45174 547.0
-157.57558 -153.73225 548.0
-154.57387 -154.57385 551.0
-151.25656 -155.13493 553.0
-140.44902 -147.84106 527.0
-136.4935 -147.56053 526.0
-133.05696 -147.84106 527.0
-130.58827 -149.24373 532.0
-122.43177 -148.40213 529.0
-119.17056 -148.96318 531.0
-116.09872 -149.8048 534.0
-113.616005 -151.48799 540.0
-109.828804 -151.48799 540.0
-107.21985 -153.17119 546.0
-109.8288 -162.70934 580.0
-105.94341 -162.98985 581.0
-102.39467 -163.83145 584.0
-98.29889 -163.83145 584.0
-94.36441 -164.11198 585.0
-90.10731 -163.83145 584.0
-193.1472 -155.27519 540.0
-188.65868 -154.70009 538.0
-184.54185 -154.41255 537.0
-181.11234 -154.70009 538.0
-177.66876 -154.98764 539.0
-174.21121 -155.27519 540.0
-170.42401 -155.27519 540.0
-167.56256 -156.13782 543.0
-164.35747 -156.71292 545.0
-161.12431 -157.28801 547.0
-158.4382 -158.4382 551.0
-155.41547 -159.30084 554.0
-151.53009 -159.30084 554.0
-150.57628 -162.46385 565.0
-136.4935 -151.24954 526.0
-133.56192 -152.11218 529.0
-139.42508 -163.32649 568.0
-125.42646 -151.24954 526.0
-121.968895 -151.53708 527.0
-118.49728 -151.82462 528.0
-115.44648 -152.68727 531.0
-112.564 -153.83746 535.0
-113.896545 -166.77705 580.0
-109.8288 -166.77705 580.0
-105.94341 -167.0646 581.0
-102.39467 -167.92723 584.0
-98.4672 -168.21478 585.0
-196.9344 -159.06241 540.0
-192.07416 -158.17873 537.0
-187.95734 -157.88417 536.0
-183.85454 -157.58961 535.0
-180.43906 -157.88417 536.0
-177.00952 -158.17873 537.0
-173.88858 -158.76785 539.0
-170.42401 -159.06241 540.0
-166.9454 -159.35696 541.0
-164.05591 -160.24065 544.0
-160.82976 -160.82976 546.0
-159.30086 -163.18625 554.0
-156.53761 -164.3645 558.0
-154.5388 -166.4264 565.0
-151.1093 -167.01553 567.0
-147.6517 -167.60464 569.0
-143.66112 -167.60464 569.0
-139.67053 -167.60464 569.0
-125.188 -154.64401 525.0
-121.50601 -154.64401 525.0
-117.824 -154.64401 525.0
-115.22907 -156.1168 530.0
-112.1432 -157.00049 533.0
-113.896545 -170.84482 580.0
-109.8288 -170.84482 580.0
-106.12576 -171.43393 582.0
-200.7216 -162.84961 540.0
-195.47563 -161.64333 536.0
-191.00111 -161.04016 534.0
-187.25601 -161.04016 534.0
-183.5109 -161.04016 534.0
-179.76578 -161.04016 534.0
-176.35027 -161.34174 535.0
-173.56598 -162.24646 538.0
-170.42401 -162.84961 540.0
-167.25398 -163.45276 542.0
-164.05591 -164.05591 544.0
-161.12431 -164.96062 547.0
-158.15067 -165.86534 550.0
-157.94028 -169.78578 563.0
-154.5388 -170.38895 565.0
-151.37581 -171.29366 568.0
-147.91121 -171.89682 570.0
-143.9136 -171.89682 570.0
-139.67053 -171.59523 569.0
-135.67996 -171.59523 569.0
-121.27457 -158.02443 524.0
-117.824 -158.32602 525.0
-115.01165 -159.53229 529.0
-118.167656 -175.21411 581.0
-114.28929 -175.51569 582.0
-198.49138 -164.78528 534.0
-194.74623 -164.78528 534.0
-190.64345 -164.4767 533.0
-186.90533 -164.4767 533.0
-183.16724 -164.4767 533.0
-179.42914 -164.4767 533.0
-176.02063 -164.78528 534.0
-172.92075 -165.40247 536.0
-170.42401 -166.6368 540.0
-167.25398 -167.25398 542.0
-164.35747 -168.17975 545.0
-162.00801 -169.72267 550.0
-159.30086 -170.95702 554.0
-158.50134 -174.35147 565.0
-154.81233 -174.66006 566.0
-151.1093 -174.96864 567.0
-147.6517 -175.58582 569.0
-144.16608 -176.20299 571.0
-140.16147 -176.20299 571.0
-136.15686 -176.20299 571.0
-121.73745 -162.31659 526.0
-118.04842 -162.31659 526.0
-114.57683 -162.62518 527.0
-81.81756 -189.47221 614.0
-202.6152 -168.846 535.0
-198.11967 -168.2148 533.0
-193.65216 -167.5836 531.0
-189.5704 -167.268 530.0
-185.85333 -167.268 530.0
-182.47993 -167.5836 531.0
-179.42914 -168.2148 533.0
-176.02063 -168.5304 534.0
-172.92075 -169.1616 536.0
-170.42401 -170.424 540.0
-167.25398 -171.0552 542.0
-164.65904 -172.3176 546.0
-162.59712 -174.2112 552.0
-160.1635 -175.7892 557.0
-158.50134 -178.314 565.0
-154.81233 -178.6296 566.0
-151.1093 -178.9452 567.0
-147.39221 -179.2608 568.0
-143.9136 -179.892 570.0
-140.16147 -180.2076 571.0
-136.39531 -180.5232 572.0
-132.3837 -180.5232 572.0
-128.8209 -181.1544 574.0
-125.23008 -181.7856 576.0
-121.4008 -182.1012 577.0
-101.160324 -189.6756 601.0
-93.81034 -191.8848 608.0
-90.28264 -193.4628 613.0
-86.40427 -194.4096 616.0
-82.483826 -195.3564 619.0
-78.016335 -195.0408 618.0
-206.75307 -172.92075 536.0
-202.2365 -172.27551 534.0
-197.37625 -171.30768 531.0
-193.28748 -170.98506 530.0
-189.5704 -170.98506 530.0
-185.85333 -170.98506 530.0
-182.13628 -170.98506 530.0
-178.75584 -171.30768 531.0
-176.02063 -172.27551 534.0
-173.24336 -173.24335 537.0
-170.10841 -173.8886 539.0
-167.56256 -175.17903 543.0
-164.65904 -176.14688 546.0
-163.77536 -179.37302 556.0
-160.73859 -180.34085 559.0
-158.22081 -181.95392 564.0
-154.5388 -182.27654 565.0
-150.84279 -182.59914 566.0
-147.13272 -182.92175 567.0
-143.66112 -183.56699 569.0
-139.67053 -183.56699 569.0
-135.67996 -183.56699 569.0
-132.3837 -184.53482 572.0
-128.59648 -184.85744 573.0
-125.23008 -185.82527 576.0
-121.4008 -186.14789 577.0
-118.167656 -187.43834 581.0
-115.46754 -189.69664 588.0
-111.7224 -190.34186 590.0
-108.49627 -191.95493 595.0
-104.849335 -192.92276 598.0
-100.992004 -193.568 600.0
-97.10662 -194.21323 602.0
-93.65605 -195.8263 607.0
-89.69352 -196.47151 609.0
-85.98347 -197.76196 613.0
-82.08406 -198.72981 616.0
-78.14257 -199.69765 619.0
-211.29771 -177.33914 538.0
-206.36734 -176.35027 535.0
-201.47905 -175.36137 532.0
-197.00455 -174.70213 530.0
-192.92276 -174.37251 529.0
-189.21272 -174.37251 529.0
-185.50267 -174.37251 529.0
-182.13628 -174.70213 530.0
-178.75584 -175.03175 531.0
-175.69101 -175.69101 533.0
-173.24336 -177.00952 537.0
-170.42401 -177.99838 540.0
-167.87115 -179.3169 544.0
-164.65904 -179.97615 546.0
-163.77536 -183.27243 556.0
-160.73859 -184.26129 559.0
-157.65974 -185.25018 562.0
-154.5388 -186.23906 565.0
-150.57628 -186.23906 565.0
-146.61374 -186.23906 565.0
-142.90369 -186.56868 566.0
-139.42508 -187.22794 568.0
-135.67996 -187.55757 569.0
-131.9208 -187.88719 570.0
-128.37206 -188.54645 572.0
-124.79525 -189.20569 574.0
-121.4008 -190.19458 577.0
-118.167656 -191.51308 581.0
-114.87841 -192.83159 585.0
-111.533035 -194.1501 589.0
-107.766884 -194.80936 591.0
-104.32333 -196.12785 595.0
-100.487045 -196.78712 597.0
-96.94532 -198.10562 601.0
-93.19317 -199.0945 604.0
-89.54624 -200.41301 608.0
-85.702934 -201.40189 611.0
-81.81756 -202.39076 614.0
-252.28365 -178.08255 529.0
-248.57356 -178.08255 529.0
-242.97694 -179.42911 533.0
-239.23883 -179.42911 533.0
-241.24466 -183.80544 546.0
-219.65761 -181.78558 540.0
-214.67113 -180.77567 537.0
-210.90497 -180.77567 537.0
-205.98161 -179.76575 534.0
-201.10034 -178.75583 531.0
-196.63284 -178.08255 529.0
-192.92276 -178.08255 529.0
-189.21272 -178.08255 529.0
-185.50267 -178.08255 529.0
-182.13628 -178.41919 530.0
-179.0925 -179.09247 532.0
-175.69101 -179.42911 533.0
-173.24336 -180.77567 537.0
-170.73961 -182.12224 541.0
-168.48834 -183.80544 546.0
-166.46849 -185.82527 552.0
-163.77536 -187.17183 556.0
-160.45105 -187.84511 558.0
-157.37921 -188.85504 561.0
-153.71825 -189.19167 562.0
-149.77676 -189.19167 562.0
-146.61374 -190.20158 565.0
-142.6512 -190.20158 565.0
-138.68867 -190.20158 565.0
-134.9646 -190.53824 566.0
-131.68938 -191.54816 569.0
-128.14763 -192.22144 571.0
-124.57784 -192.8947 573.0
-121.19041 -193.90463 576.0
-117.96427 -195.25119 580.0
-114.68204 -196.59775 584.0
-111.15432 -197.60767 587.0
-107.40218 -198.28096 589.0
-103.97267 -199.6275 593.0
-100.318726 -200.63742 596.0
-96.6227 -201.64735 599.0
-93.03887 -202.99391 603.0
-89.25168 -204.00381 606.0
-255.02585 -181.10532 527.0
-252.28365 -181.79262 529.0
-248.10368 -181.44897 528.0
-243.93776 -181.10532 527.0
-241.15347 -181.79262 529.0
-237.89227 -182.13629 530.0
-239.91914 -186.60378 543.0
-236.5457 -186.94742 544.0
-231.01921 -185.57281 540.0
-227.23201 -185.57281 540.0
-223.44481 -185.57281 540.0
-218.4373 -184.54185 537.0
-214.27136 -184.1982 536.0
-210.11948 -183.85454 535.0
-205.98161 -183.5109 534.0
-201.10034 -182.47993 531.0
-197.00455 -182.13629 530.0
-192.92276 -181.79262 529.0
-189.21272 -181.79262 529.0
-185.50267 -181.79262 529.0
-182.13628 -182.13629 530.0
-179.42914 -183.16724 533.0
-176.02063 -183.5109 534.0
-173.88858 -185.22916 539.0
-171.0552 -186.26012 542.0
-168.79692 -187.9784 547.0
-166.77007 -190.04031 553.0
-163.18623 -190.38396 554.0
-160.1635 -191.41492 557.0
-156.25706 -191.41492 557.0
-152.62416 -191.75858 558.0
-149.24374 -192.44588 560.0
-145.57576 -192.78954 561.0
-142.39871 -193.8205 564.0
-138.68867 -194.16414 565.0
-134.72614 -194.16414 565.0
-130.99504 -194.5078 566.0
-127.69878 -195.53877 569.0
-124.57784 -196.91338 573.0
-120.98 -197.60068 575.0
-117.96427 -199.31894 580.0
-114.68204 -200.69357 584.0
-111.15432 -201.72452 587.0
-107.40218 -202.41182 589.0
-103.97267 -203.78644 593.0
-100.150406 -204.47374 595.0
-96.30009 -205.16104 597.0
-260.42612 -183.39867 523.0
-256.2672 -183.04802 522.0
-253.5741 -183.74934 524.0
-249.89911 -183.74934 524.0
-246.2241 -183.74934 524.0
-242.54912 -183.74934 524.0
-239.78587 -184.45067 526.0
-237.44344 -185.50267 529.0
-238.59361 -189.36002 540.0
-234.80641 -189.36002 540.0
-231.01921 -189.36002 540.0
-226.8112 -189.00934 539.0
-222.20345 -188.30801 537.0
-217.62375 -187.60667 535.0
-213.47183 -187.25601 534.0
-209.72672 -187.25601 534.0
-205.59587 -186.90533 533.0
-201.10034 -186.20401 531.0
-197.00455 -185.85335 530.0
-192.92276 -185.50267 529.0
-189.21272 -185.50267 529.0
-185.85333 -185.85335 530.0
-182.47993 -186.20401 531.0
-179.42914 -186.90533 533.0
-176.35027 -187.60667 535.0
-174.21121 -189.36002 540.0
-171.6864 -190.76266 544.0
-169.1055 -192.16534 548.0
-166.16692 -193.21735 551.0
-162.89168 -193.91867 553.0
-159.30086 -194.26935 554.0
-155.696 -194.62001 555.0
-152.07713 -194.97067 556.0
-148.44423 -195.32133 557.0
-144.79727 -195.67201 558.0
-141.64128 -196.72401 561.0
-137.95227 -197.07468 562.0
-134.48769 -197.77602 564.0
-130.76361 -198.12668 565.0
-127.47434 -199.17867 568.0
-124.36043 -200.58134 572.0
-120.98 -201.63335 575.0
-117.96427 -203.38667 580.0
-114.87841 -205.14001 585.0
-111.34367 -206.19202 588.0
-278.254 -189.21274 529.0
-268.8351 -185.27824 518.0
-266.73813 -186.35129 521.0
-263.5891 -186.70897 522.0
-259.4302 -186.35129 521.0
-255.77628 -186.35129 521.0
-252.12234 -186.35129 521.0
-248.46838 -186.35129 521.0
-244.34454 -185.9936 520.0
-239.77185 -185.27824 518.0
-236.5948 -185.63593 519.0
-241.03426 -192.07416 537.0
-237.2681 -192.07416 537.0
-233.93675 -192.43185 538.0
-229.73576 -192.07416 537.0
-224.70721 -191.00113 534.0
-220.9621 -191.00113 534.0
-217.21698 -191.00113 534.0
-213.47183 -191.00113 534.0
-208.94124 -190.28577 532.0
-205.21014 -190.28577 532.0
-201.10034 -189.92809 531.0
-197.00455 -189.5704 530.0
-192.92276 -189.21274 529.0
-189.21272 -189.21274 529.0
-185.50267 -189.21274 529.0
-182.47993 -189.92809 531.0
-179.76578 -191.00113 534.0
-177.00952 -192.07416 537.0
-174.53381 -193.50488 541.0
-172.002 -194.9356 545.0
-168.79692 -195.65097 547.0
-165.86534 -196.724 550.0
-162.00801 -196.724 550.0
-158.4382 -197.08168 551.0
-155.41547 -198.15472 554.0
-151.53009 -198.15472 554.0
-147.64471 -198.15472 554.0
-144.27829 -198.87009 556.0
-140.88383 -199.58545 558.0
-137.46133 -200.3008 560.0
-134.01079 -201.01616 562.0
-130.76361 -202.0892 565.0
-127.47434 -203.16225 568.0
-124.14301 -204.23528 571.0
-121.19041 -206.02368 576.0
-281.3539 -190.00522 521.0
-277.69995 -190.00522 521.0
-272.46802 -188.91115 518.0
-268.31613 -188.54646 517.0
-266.73813 -190.00522 521.0
-263.08417 -190.00522 521.0
-258.43433 -189.27585 519.0
-254.30348 -188.91115 518.0
-248.7349 -187.45238 514.0
-245.13005 -187.45238 514.0
-241.52516 -187.45238 514.0
-237.92032 -187.45238 514.0
-234.77135 -187.81708 515.0
-239.6877 -194.74625 534.0
-235.94258 -194.74625 534.0
-232.19743 -194.74625 534.0
-228.02452 -194.38156 533.0
-224.2864 -194.38156 533.0
-220.5483 -194.38156 533.0
-216.40343 -194.01686 532.0
-212.27257 -193.65216 531.0
-208.15575 -193.28748 530.0
-204.43867 -193.28748 530.0
-200.7216 -193.28748 530.0
-196.63284 -192.92278 529.0
-192.92276 -192.92278 529.0
-189.21272 -192.92278 529.0
-185.85333 -193.28748 530.0
-182.82358 -194.01686 532.0
-179.76578 -194.74625 534.0
-177.33914 -196.20502 538.0
-174.85643 -197.66379 542.0
-172.002 -198.75787 545.0
-168.48834 -199.12256 546.0
-164.96063 -199.48726 547.0
-161.41887 -199.85196 548.0
-158.15067 -200.58133 550.0
-154.57387 -200.94603 551.0
-151.25656 -201.67542 553.0
-147.64471 -202.0401 554.0
-143.7593 -202.0401 554.0
-140.37889 -202.7695 556.0
-137.21587 -203.86357 559.0
-134.01079 -204.95766 562.0
-130.76361 -206.05173 565.0
-127.47434 -207.14581 568.0
-124.14301 -208.2399 571.0
-280.0845 -190.31381 512.0
-278.11374 -191.42892 515.0
-275.5679 -192.17235 517.0
-271.94202 -192.17235 517.0
-267.79715 -191.80063 516.0
-264.17825 -191.80063 516.0
-258.03458 -189.94211 511.0
-254.45074 -189.94211 511.0
-250.86694 -189.94211 511.0
-247.28314 -189.94211 511.0
-243.69933 -189.94211 511.0
-240.1155 -189.94211 511.0
-237.45746 -190.68552 513.0
-234.31548 -191.05722 514.0
-230.71063 -191.05722 514.0
-235.0589 -197.74794 532.0
-231.32779 -197.74794 532.0
-227.5967 -197.74794 532.0
-223.8656 -197.74794 532.0
-219.72073 -197.37624 531.0
-215.58987 -197.00453 530.0
-211.47304 -196.63283 529.0
-207.76299 -196.63283 529.0
-204.05295 -196.63283 529.0
-200.3429 -196.63283 529.0
-196.63284 -196.63283 529.0
-192.92276 -196.63283 529.0
-189.21272 -196.63283 529.0
-186.20401 -197.37624 531.0
-183.16724 -198.11964 533.0
-179.76578 -198.49135 534.0
-177.33914 -199.9782 538.0
-174.85643 -201.46501 542.0
-171.6864 -202.20842 544.0
-168.17973 -202.58012 545.0
-164.65904 -202.95183 546.0
-160.82976 -202.95183 546.0
-157.57558 -203.69525 548.0
-154.29333 -204.43867 550.0
-150.70953 -204.81038 551.0
-147.1117 -205.18208 552.0
-143.7593 -205.92549 554.0
-140.37889 -206.6689 556.0
-137.21587 -207.78403 559.0
-134.01079 -208.89914 562.0
-279.53745 -193.52592 511.0
-276.49365 -193.90463 512.0
-272.90283 -193.90463 512.0
-268.786 -193.52592 511.0
-264.6832 -193.1472 510.0
-260.08246 -192.38976 508.0
-256.51968 -192.38976 508.0
-252.95692 -192.38976 508.0
-249.39415 -192.38976 508.0
-246.31529 -192.76846 509.0
-243.22241 -193.1472 510.0
-239.64561 -193.1472 510.0
-236.53168 -193.52592 511.0
-234.31548 -194.66206 514.0
-230.71063 -194.66206 514.0
-235.0589 -201.47903 532.0
-230.45815 -200.7216 530.0
-226.74107 -200.7216 530.0
-222.60321 -200.34286 529.0
-218.89316 -200.34286 529.0
-215.18312 -200.34286 529.0
-211.47304 -200.34286 529.0
-207.76299 -200.34286 529.0
-204.05295 -200.34286 529.0
-200.3429 -200.34286 529.0
-196.63284 -200.34286 529.0
-192.92276 -200.34286 529.0
-189.5704 -200.7216 530.0
-186.55467 -201.47903 532.0
-183.16724 -201.85776 533.0
-180.43906 -202.99391 536.0
-177.66876 -204.13007 539.0
-174.21121 -204.5088 540.0
-171.3708 -205.64496 543.0
-167.56256 -205.64496 543.0
-164.05591 -206.02367 544.0
-160.82976 -206.78111 546.0
-157.00047 -206.78111 546.0
-153.73227 -207.53856 548.0
-150.436 -208.296 550.0
-147.3782 -209.43216 553.0
-143.7593 -209.81087 554.0
-140.63136 -210.94704 557.0
-137.21587 -211.70447 559.0
-276.25522 -194.79533 505.0
-274.33356 -195.95253 508.0
-270.23776 -195.56679 507.0
-266.156 -195.18106 506.0
-262.0883 -194.79533 505.0
-259.05853 -195.18106 506.0
-255.0048 -194.79533 505.0
-251.96101 -195.18106 506.0
-248.90321 -195.56679 507.0
-245.83136 -195.95253 508.0
-242.2686 -195.95253 508.0
-238.70581 -195.95253 508.0
-235.14305 -195.95253 508.0
-232.03615 -196.33826 509.0
-229.81291 -197.49545 512.0
-227.10579 -198.26692 514.0
-229.15366 -203.28146 527.0
-225.88545 -203.66719 528.0
-222.1824 -203.66719 528.0
-218.06558 -203.28146 527.0
-214.36957 -203.28146 527.0
-211.07327 -203.66719 528.0
-207.37025 -203.66719 528.0
-204.05295 -204.05293 529.0
-200.3429 -204.05293 529.0
-196.63284 -204.05293 529.0
-193.28748 -204.43866 530.0
-190.28577 -205.21013 532.0
-186.90533 -205.59586 533.0
-183.5109 -205.98158 534.0
-180.43906 -206.75305 536.0
-177.33914 -207.52454 538.0
-174.21121 -208.29599 540.0
-170.73961 -208.68173 541.0
-167.25398 -209.06746 542.0
-163.75433 -209.45319 543.0
-160.24063 -209.83893 544.0
-157.00047 -210.61038 546.0
-153.45174 -210.99612 547.0
-150.436 -212.15334 550.0
-147.3782 -213.31053 553.0
-143.7593 -213.69626 554.0
-140.63136 -214.85345 557.0
-274.6141 -197.15881 502.0
-271.63342 -197.55156 503.0
-268.1057 -197.55156 503.0
-265.104 -197.9443 504.0
-261.5693 -197.9443 504.0
-258.03458 -197.9443 504.0
-254.49983 -197.9443 504.0
-250.96512 -197.9443 504.0
-247.92134 -198.33705 505.0
-244.86354 -198.7298 506.0
-241.31479 -198.7298 506.0
-236.82623 -197.9443 504.0
-233.75441 -198.33705 505.0
-231.1244 -199.12256 507.0
-227.56865 -199.12256 507.0
-231.966 -206.19199 525.0
-228.28401 -206.19199 525.0
-225.02982 -206.58475 526.0
-220.92001 -206.19199 525.0
-217.65181 -206.58475 526.0
-214.36957 -206.97748 527.0
-211.07327 -207.37022 528.0
-207.76299 -207.76297 529.0
-204.05295 -207.76297 529.0
-200.7216 -208.15572 530.0
-197.00455 -208.15572 530.0
-194.01686 -208.94121 532.0
-190.64345 -209.33397 533.0
-187.25601 -209.7267 534.0
-183.85454 -210.11946 535.0
-180.43906 -210.51219 536.0
-177.00952 -210.90495 537.0
-174.21121 -212.08319 540.0
-170.42401 -212.08319 540.0
-166.63681 -212.08319 540.0
-163.45276 -212.86868 542.0
-160.24063 -213.65417 544.0
-157.00047 -214.43967 546.0
-153.45174 -214.83241 547.0
-150.436 -216.01067 550.0
-147.1117 -216.79614 552.0
-271.33185 -198.28096 496.0
-269.4733 -199.48026 499.0
-266.50668 -199.88002 500.0
-264.052 -200.67953 502.0
-260.5313 -200.67953 502.0
-257.5226 -201.0793 503.0
-253.48993 -200.67953 502.0
-249.96924 -200.67953 502.0
-245.95761 -200.27977 501.0
-242.44394 -200.27977 501.0
-238.93025 -200.27977 501.0
-235.41656 -200.27977 501.0
-232.36577 -200.67953 502.0
-229.7568 -201.47905 504.0
-227.11981 -202.27856 506.0
-231.52419 -209.47424 524.0
-227.84917 -209.47424 524.0
-224.602 -209.87401 525.0
-220.92001 -209.87401 525.0
-217.65181 -210.27376 526.0
-214.77634 -211.0733 528.0
-211.47304 -211.47305 529.0
-207.76299 -211.47305 529.0
-204.43867 -211.87282 530.0
-201.47905 -212.67233 532.0
-198.11967 -213.0721 533.0
-194.74623 -213.47185 534.0
-191.00111 -213.47185 534.0
-187.25601 -213.47185 534.0
-184.1982 -214.27136 536.0
-180.7757 -214.67113 537.0
-177.00952 -214.67113 537.0
-173.88858 -215.47066 539.0
-170.42401 -215.8704 540.0
-166.9454 -216.27017 541.0
-163.45276 -216.66994 542.0
-160.24063 -217.46947 544.0
-157.00047 -218.26897 546.0
-153.73227 -219.0685 548.0
-270.78482 -201.35281 495.0
-268.9333 -202.57314 498.0
-265.97366 -202.97989 499.0
-263.0 -203.38667 500.0
-258.97437 -202.97989 499.0
-253.93878 -201.75958 496.0
-250.96512 -202.16635 497.0
-247.97745 -202.57314 498.0
-244.97574 -202.97989 499.0
-241.47609 -202.97989 499.0
-237.97646 -202.97989 499.0
-234.47676 -202.97989 499.0
-231.90288 -203.79344 501.0
-228.84508 -204.20023 502.0
-225.77322 -204.607 503.0
-231.08234 -212.74246 523.0
-227.84917 -213.14923 524.0
-224.602 -213.55602 525.0
-221.3408 -213.96278 526.0
-218.47937 -214.77634 528.0
-215.18312 -215.18309 529.0
-211.8728 -215.58989 530.0
-208.54848 -215.99663 531.0
-205.59587 -216.8102 533.0
-202.2365 -217.21696 534.0
-198.49138 -217.21696 534.0
-194.74623 -217.21696 534.0
-191.35881 -217.62375 535.0
-187.60667 -217.62375 535.0
-184.1982 -218.03052 536.0
-180.43906 -218.03052 536.0
-177.00952 -218.4373 537.0
-173.88858 -219.25082 539.0
-170.42401 -219.6576 540.0
-167.25398 -220.47116 542.0
-163.75433 -220.87793 543.0
-160.5352 -221.69148 545.0
-269.1437 -203.58305 492.0
-266.77316 -204.41061 494.0
-262.77557 -203.99684 493.0
-259.31802 -203.99684 493.0
-256.37943 -204.41061 494.0
-253.4268 -204.8244 495.0
-250.46016 -205.23819 496.0
-246.98155 -205.23819 496.0
-243.99388 -205.65198 497.0
-240.99217 -206.06577 498.0
-237.97646 -206.47955 499.0
-234.47676 -206.47955 499.0
-230.97713 -206.47955 499.0
-227.93333 -206.89334 500.0
-225.32439 -207.7209 502.0
-231.08234 -216.41043 523.0
-227.84917 -216.82422 524.0
-225.02982 -217.6518 526.0
-221.76161 -218.06558 527.0
-218.89316 -218.89316 529.0
-215.18312 -218.89316 529.0
-212.27257 -219.72073 531.0
-209.33398 -220.54831 533.0
-205.98161 -220.9621 534.0
-202.2365 -220.9621 534.0
-198.86307 -221.37585 535.0
-195.47563 -221.78964 536.0
-191.71648 -221.78964 536.0
-187.95734 -221.78964 536.0
-184.1982 -221.78964 536.0
-180.43906 -221.78964 536.0
-177.33914 -222.61722 538.0
-174.21121 -223.4448 540.0
-171.0552 -224.27237 542.0
-167.56256 -224.68617 543.0

