ply
format ascii 1.0
comment made by @arthurmuchir
element vertex 602
property float x
property float y
property float z
end_header
-241.42699 -157.85612 662.0
-252.2696 -160.53522 654.0
-247.68289 -160.53522 654.0
-243.4679 -160.78069 655.0
-241.0623 -162.25348 661.0
-236.78416 -162.49895 662.0
-259.04446 -163.60704 648.0
-254.49985 -163.60704 648.0
-250.72667 -164.11201 650.0
-246.92545 -164.61696 652.0
-243.09618 -165.12193 654.0
-239.60352 -165.87936 657.0
-235.71112 -166.38432 659.0
-310.35406 -155.17702 598.0
-307.696 -155.95549 601.0
-303.48096 -155.95549 601.0
-261.55527 -166.85422 643.0
-258.24496 -167.63269 646.0
-254.1071 -167.89218 647.0
-249.56947 -167.89218 647.0
-246.16801 -168.67067 650.0
-242.72447 -169.44916 653.0
-239.60352 -170.48712 657.0
-234.99576 -170.48712 657.0
-312.97 -158.57147 595.0
-309.31607 -158.83798 596.0
-305.13614 -158.83798 596.0
-302.47104 -159.6375 599.0
-299.26596 -160.1705 601.0
-296.52374 -160.97002 604.0
-265.23727 -170.83078 641.0
-261.1485 -171.09729 642.0
-257.44543 -171.6303 644.0
-253.71434 -172.1633 646.0
-249.56947 -172.42981 647.0
-245.78929 -172.96283 649.0
-242.72447 -174.02884 653.0
-239.60352 -175.09488 657.0
-311.392 -161.92383 592.0
-307.75912 -162.19736 593.0
-304.11218 -162.47087 594.0
-301.46112 -163.29143 597.0
-298.768 -164.112 600.0
-296.52374 -165.20607 604.0
-269.312 -175.0528 640.0
-264.8235 -175.0528 640.0
-260.74173 -175.32632 641.0
-257.0457 -175.87335 643.0
-252.92885 -176.14687 644.0
-249.18375 -176.69392 646.0
-245.03185 -176.96744 647.0
-235.29735 -183.53192 671.0
-231.62236 -184.35246 674.0
-227.56865 -184.89952 676.0
-223.8165 -185.72008 679.0
-220.0223 -186.54063 682.0
-309.81403 -165.23413 589.0
-306.72113 -165.79518 591.0
-303.6002 -166.35626 593.0
-299.94623 -166.63678 594.0
-297.27414 -167.4784 597.0
-295.05093 -168.60052 601.0
-270.37802 -177.29706 632.0
-267.6288 -178.41919 636.0
-263.58212 -178.69972 637.0
-259.5214 -178.98026 638.0
-255.8464 -179.54132 640.0
-252.53612 -180.38292 643.0
-249.18375 -181.22452 646.0
-245.03185 -181.50507 647.0
-238.93025 -187.39626 668.0
-235.29735 -188.23785 671.0
-230.93506 -188.51839 672.0
-227.23203 -189.35999 675.0
-223.48688 -190.20158 678.0
-219.37708 -190.76266 680.0
-313.94485 -169.36497 589.0
-309.28802 -169.07742 588.0
-305.68317 -169.36497 589.0
-302.57626 -169.94006 591.0
-299.44128 -170.51517 593.0
-296.77625 -171.37779 596.0
-294.0691 -172.24043 599.0
-278.80106 -181.44193 631.0
-274.81046 -181.72948 632.0
-271.23364 -182.30458 634.0
-267.208 -182.59212 635.0
-263.16833 -182.87967 636.0
-259.5214 -183.45476 638.0
-255.8464 -184.02986 640.0
-252.92885 -185.18004 644.0
-249.56947 -186.04268 647.0
-246.06982 -190.35588 662.0
-242.15637 -190.93097 664.0
-238.21487 -191.50607 666.0
-233.89467 -191.79361 667.0
-230.5914 -192.9438 671.0
-226.22209 -193.23134 672.0
-222.82764 -194.38153 676.0
-218.73186 -194.95662 678.0
-312.8788 -172.90672 587.0
-308.76202 -172.90672 587.0
-305.16418 -173.2013 588.0
-301.5523 -173.49585 589.0
-298.43134 -174.08498 591.0
-296.2783 -175.26321 595.0
-294.0691 -176.44145 599.0
-291.3199 -177.32513 602.0
-282.32877 -185.27824 629.0
-278.35922 -185.57281 630.0
-274.37564 -185.86737 631.0
-270.37802 -186.16193 632.0
-266.7872 -186.75105 634.0
-263.16833 -187.34018 636.0
-259.5214 -187.92929 638.0
-256.24615 -188.81297 641.0
-252.53612 -189.4021 643.0
-252.65535 -192.93681 655.0
-249.19777 -193.8205 658.0
-245.69812 -194.70418 661.0
-241.42699 -194.99873 662.0
-237.49953 -195.58784 664.0
-233.544 -196.17697 666.0
-229.56042 -196.7661 668.0
-225.88545 -197.64978 671.0
-222.16837 -198.53345 674.0
-218.08661 -199.12257 676.0
-312.34583 -176.72197 586.0
-307.71002 -176.42041 585.0
-304.1262 -176.72197 586.0
-301.0403 -177.32513 588.0
-297.92642 -177.92827 590.0
-296.2783 -179.43614 595.0
-293.08722 -180.03928 597.0
-285.8284 -189.08649 627.0
-281.43106 -189.08649 627.0
-277.47556 -189.38806 628.0
-273.50598 -189.68964 629.0
-269.95023 -190.29277 631.0
-266.7872 -191.19751 634.0
-263.16833 -191.80064 636.0
-260.33493 -193.00694 640.0
-256.64594 -193.61008 642.0
-256.07083 -196.62582 652.0
-252.65535 -197.53055 655.0
-248.81905 -198.13368 657.0
-244.58301 -198.43526 658.0
-241.0623 -199.33998 661.0
-237.14185 -199.94313 663.0
-233.544 -200.84785 666.0
-229.56042 -201.451 668.0
-225.54883 -202.05414 670.0
-315.37558 -180.21461 584.0
-311.8128 -180.5232 585.0
-307.18402 -180.21461 584.0
-303.6072 -180.5232 585.0
-301.0403 -181.44896 588.0
-297.42145 -181.75755 589.0
-295.28238 -182.9919 593.0
-293.08722 -184.22624 597.0
-284.9167 -192.86667 625.0
-281.43106 -193.48384 627.0
-277.0337 -193.48384 627.0
-273.07114 -193.79243 628.0
-269.0946 -194.10101 629.0
-265.94562 -195.02678 632.0
-263.16833 -196.26112 636.0
-260.74173 -197.80406 641.0
-258.6447 -199.65558 647.0
-255.28534 -200.58134 650.0
-251.49814 -201.1985 652.0
-247.30417 -201.5071 653.0
-243.4679 -202.12427 655.0
-240.3329 -203.35861 659.0
-236.78416 -204.28438 662.0
-233.544 -205.51874 666.0
-229.21678 -205.8273 667.0
-314.29553 -183.6792 582.0
-310.74677 -183.9948 583.0
-307.18402 -184.3104 584.0
-303.6072 -184.626 585.0
-300.52835 -185.2572 587.0
-297.92642 -186.204 590.0
-295.28238 -187.1508 593.0
-293.08722 -188.4132 597.0
-288.37424 -196.6188 623.0
-284.46082 -196.9344 624.0
-280.0845 -196.9344 624.0
-276.15002 -197.25 625.0
-272.63632 -197.8812 627.0
-269.0946 -198.5124 629.0
-265.5248 -199.1436 631.0
-263.58212 -201.0372 637.0
-262.77557 -203.8776 646.0
-258.6447 -204.1932 647.0
-254.49985 -204.5088 648.0
-250.72667 -205.14 650.0
-246.92545 -205.7712 652.0
-243.09618 -206.4024 654.0
-239.96822 -207.6648 658.0
-236.42648 -208.6116 661.0
-232.492 -209.2428 663.0
-317.83026 -187.43834 581.0
-314.29553 -187.76096 582.0
-310.74677 -188.08356 583.0
-307.18402 -188.40619 584.0
-303.08823 -188.40619 584.0
-300.52835 -189.37402 587.0
-297.92642 -190.34186 590.0
-294.78442 -190.98709 592.0
-301.9661 -201.31071 624.0
-295.68213 -200.02026 620.0
-290.86398 -199.69765 619.0
-286.52274 -199.69765 619.0
-283.54907 -200.6655 622.0
-279.63562 -200.98811 623.0
-276.15002 -201.63333 625.0
-272.63632 -202.27855 627.0
-269.0946 -202.92378 629.0
-265.94562 -203.89162 632.0
-265.65106 -207.11775 642.0
-261.96204 -207.76299 644.0
-258.24496 -208.40822 646.0
-254.1071 -208.73082 647.0
-250.34094 -209.37605 649.0
-246.92545 -210.34389 652.0
-243.4679 -211.31172 655.0
-239.60352 -211.95695 657.0
-236.42648 -213.2474 661.0
-222.82764 -218.08661 676.0
-317.2832 -191.18346 580.0
-313.7555 -191.51308 581.0
-310.21375 -191.84271 582.0
-307.18402 -192.50197 584.0
-303.6072 -192.83159 585.0
-301.0403 -193.82047 588.0
-297.92642 -194.47974 590.0
-304.74335 -201.73152 612.0
-299.96027 -201.40189 611.0
-297.6108 -202.72038 615.0
-293.77454 -203.05002 616.0
-290.3941 -203.70927 618.0
-286.52274 -204.0389 619.0
-282.63733 -204.36853 620.0
-279.1868 -205.02777 622.0
-276.15002 -206.01666 625.0
-272.63632 -206.67592 627.0
-270.37802 -208.32405 632.0
-269.312 -210.96106 640.0
-265.23727 -211.29068 641.0
-261.1485 -211.62032 642.0
-257.44543 -212.27957 644.0
-253.71434 -212.93883 646.0
-249.95522 -213.59807 648.0
-246.16801 -214.25732 650.0
-242.72447 -215.2462 653.0
-239.60352 -216.5647 657.0
-232.84268 -218.87209 664.0
-229.21678 -219.861 667.0
-226.22209 -221.50911 672.0
-222.16837 -222.16838 674.0
-217.764 -222.498 675.0
-213.9768 -223.48688 678.0
-209.83894 -224.14612 680.0
-316.18912 -194.57791 578.0
-313.21548 -195.25119 580.0
-309.68076 -195.58783 581.0
-307.18402 -196.59775 584.0
-303.6072 -196.93439 585.0
-301.5523 -198.28096 589.0
-298.43134 -198.95422 591.0
-303.2495 -205.01375 609.0
-299.46933 -205.35039 610.0
-296.64297 -206.3603 613.0
-292.8207 -206.69695 614.0
-288.9844 -207.03358 615.0
-285.1341 -207.37022 616.0
-282.1815 -208.38016 619.0
-279.1868 -209.39008 622.0
-275.7082 -210.06335 624.0
-273.07114 -211.40991 628.0
-271.66147 -213.76639 635.0
-268.04962 -214.43967 637.0
-263.9959 -214.7763 638.0
-260.33493 -215.44958 640.0
-256.64594 -216.12286 642.0
-252.92885 -216.79614 644.0
-249.95522 -218.1427 648.0
-246.16801 -218.81598 650.0
-237.49953 -223.52895 664.0
-233.544 -224.20224 666.0
-229.21678 -224.53886 667.0
-224.87553 -224.8755 668.0
-221.1795 -225.88544 671.0
-216.79616 -226.22208 672.0
-213.03001 -227.23198 675.0
-209.83894 -228.91518 680.0
-315.6421 -198.288 577.0
-313.21548 -199.31894 580.0
-310.21375 -200.00624 582.0
-307.18402 -200.69357 584.0
-304.1262 -201.38087 586.0
-309.2319 -207.56662 604.0
-306.00574 -208.25394 606.0
-302.75156 -208.94124 608.0
-298.97842 -209.2849 609.0
-295.6751 -209.9722 611.0
-292.34378 -210.6595 613.0
-288.04462 -210.6595 613.0
-284.6712 -211.34682 615.0
-281.72562 -212.37778 618.0
-278.28906 -213.06508 620.0
-275.7082 -214.4397 624.0
-273.9408 -216.50163 630.0
-270.37802 -217.18892 632.0
-267.6288 -218.56354 636.0
-263.58212 -218.90718 637.0
-260.33493 -219.93814 640.0
-256.64594 -220.62546 642.0
-252.92885 -221.31276 644.0
-249.95522 -222.68736 648.0
-246.92545 -224.06198 652.0
-244.21129 -225.78026 657.0
-240.3329 -226.46756 659.0
-236.78416 -227.49852 662.0
-232.492 -227.84216 663.0
-228.87314 -228.87312 666.0
-224.5389 -229.21678 667.0
-220.19061 -229.56046 668.0
-216.47354 -230.59142 671.0
-212.0832 -230.93506 672.0
-315.09506 -201.98401 576.0
-312.67545 -203.03601 579.0
-311.2798 -204.78934 584.0
-307.71002 -205.14001 585.0
-305.16418 -206.19202 588.0
-307.696 -210.75067 601.0
-303.98593 -211.10135 602.0
-300.7598 -211.80267 604.0
-298.4875 -213.20534 608.0
-294.7073 -213.55602 609.0
-290.9131 -213.90668 610.0
-288.04462 -214.95866 613.0
-284.2083 -215.30934 614.0
-281.72562 -216.712 618.0
-278.28906 -217.41335 620.0
-275.26633 -218.46535 623.0
-272.63632 -219.868 627.0
-269.95023 -221.27069 631.0
-267.208 -222.67334 635.0
-263.58212 -223.37468 637.0
-260.33493 -224.42668 640.0
-256.64594 -225.128 642.0
-254.1071 -226.88135 647.0
-250.72667 -227.93335 650.0
-247.30417 -228.98534 653.0
-243.4679 -229.68669 655.0
-239.60352 -230.388 657.0
-235.71112 -231.08934 659.0
-232.14134 -232.14134 662.0
-227.84216 -232.492 663.0
-224.20226 -233.544 666.0
-219.861 -233.89468 667.0
-218.08661 -237.05069 676.0
-315.09506 -206.02368 576.0
-312.13544 -206.73904 578.0
-310.74677 -208.52745 583.0
-307.71002 -209.2428 585.0
-305.68317 -210.67352 589.0
-304.11218 -212.46193 594.0
-301.9661 -213.89265 598.0
-298.768 -214.608 600.0
-296.52374 -216.03873 604.0
-293.73947 -217.11177 607.0
-290.9131 -218.1848 610.0
-287.57474 -218.90016 612.0
-284.2083 -219.61552 614.0
-280.81387 -220.3309 616.0
-277.84024 -221.40393 619.0
-274.8245 -222.47696 622.0
-272.63632 -224.26537 627.0
-269.0946 -224.98073 629.0
-266.7872 -226.76913 634.0
-263.58212 -227.84216 637.0
-259.5214 -228.19983 638.0
-257.44543 -230.34593 644.0
-254.49985 -231.77664 648.0
-250.72667 -232.492 650.0
-246.92545 -233.20737 652.0
-242.72447 -233.56503 653.0
-238.87413 -234.2804 655.0
-234.99576 -234.99576 657.0
-231.79068 -236.4265 661.0
-227.49852 -236.78416 662.0
-224.20226 -238.21489 666.0
-219.53137 -238.21489 666.0
-314.548 -209.69867 575.0
-312.13544 -210.79276 578.0
-310.21375 -212.25151 582.0
-307.71002 -213.3456 585.0
-305.16418 -214.43968 588.0
-303.6002 -216.26315 593.0
-301.46112 -217.72192 597.0
-298.27005 -218.45132 599.0
-296.0328 -219.91006 603.0
-293.73947 -221.36885 607.0
-290.9131 -222.46294 610.0
-287.10483 -222.82762 611.0
-283.74545 -223.557 613.0
-280.81387 -224.65111 616.0
-277.84024 -225.74518 619.0
-274.38266 -226.47456 621.0
-271.76666 -227.93335 625.0
-268.66678 -229.0274 628.0
-266.7872 -231.21558 634.0
-263.58212 -232.30965 637.0
-260.74173 -233.76842 641.0
-258.24496 -235.5919 646.0
-254.1071 -235.95659 647.0
-249.56947 -235.95659 647.0
-245.78929 -236.68597 649.0
-242.35277 -237.78004 652.0
-238.50943 -238.50943 654.0
-234.99576 -239.60353 657.0
-231.08934 -240.33292 659.0
-314.00098 -213.35962 574.0
-312.67545 -215.21815 579.0
-309.68076 -215.96158 581.0
-307.71002 -217.4484 585.0
-305.16418 -218.56354 588.0
-303.08823 -220.05035 592.0
-300.95615 -221.53717 596.0
-298.27005 -222.65228 599.0
-296.0328 -224.13913 603.0
-293.25552 -225.25424 606.0
-290.4362 -226.36937 609.0
-287.10483 -227.11278 611.0
-283.74545 -227.85619 613.0
-280.81387 -228.9713 616.0
-277.84024 -230.08643 619.0
-274.38266 -230.82983 621.0
-271.33185 -231.94496 624.0
-268.66678 -233.4318 628.0
-265.94562 -234.91861 632.0
-263.16833 -236.40544 636.0
-261.1485 -238.63567 642.0
-256.64594 -238.63567 642.0
-252.92885 -239.37907 644.0
-249.56947 -240.49422 647.0
-245.41057 -240.86594 648.0
-242.35277 -242.35275 652.0
-238.50943 -243.09616 654.0
-234.99576 -244.21127 657.0
-312.9069 -216.62784 572.0
-312.13544 -218.90016 578.0
-309.14774 -219.6576 580.0
-307.71002 -221.5512 585.0
-305.68317 -223.06607 589.0
-303.08823 -224.20224 592.0
-300.4512 -225.3384 595.0
-298.27005 -226.85327 599.0
-296.52374 -228.74687 604.0
-293.73947 -229.88304 607.0
-290.4362 -230.64047 609.0
-287.10483 -231.3979 611.0
-283.74545 -232.15536 613.0
-280.81387 -233.2915 616.0
-277.84024 -234.42767 619.0
-274.38266 -235.1851 621.0
-270.897 -235.94257 623.0
-268.66678 -237.83617 628.0
-265.94562 -239.35103 632.0
-263.16833 -240.8659 636.0
-260.33493 -242.3808 640.0
-256.24615 -242.7595 641.0
-252.14337 -243.13823 642.0
-249.18375 -244.6531 646.0
-245.41057 -245.41057 648.0
-242.35277 -246.92543 652.0
-238.50943 -247.68288 654.0
-312.9069 -220.63947 572.0
-311.05536 -222.1824 576.0
-309.14774 -223.72531 580.0
-307.71002 -225.654 585.0
-305.68317 -227.19691 589.0
-304.11218 -229.1256 594.0
-300.95615 -229.89706 596.0
-298.768 -231.44 600.0
-296.0328 -232.5972 603.0
-293.73947 -234.14012 607.0
-290.4362 -234.9116 609.0
-287.57474 -236.0688 612.0
-284.2083 -236.84026 614.0
-280.81387 -237.61171 616.0
-277.39136 -238.3832 618.0
-273.499 -238.76892 619.0
-270.897 -240.31186 623.0
-268.66678 -242.24051 628.0
-265.5248 -243.39772 631.0
-262.75455 -244.94066 635.0
-259.11462 -245.71211 637.0
-255.8464 -246.86932 640.0
-252.14337 -247.6408 642.0
-248.41228 -248.41226 644.0
-245.03185 -249.56946 647.0
-312.9069 -224.65108 572.0
-311.5954 -226.61482 577.0
-309.68076 -228.1858 581.0
-307.18402 -229.36404 584.0
-305.68317 -231.32776 589.0
-304.11218 -233.2915 594.0
-300.95615 -234.07701 596.0
-298.768 -235.64798 600.0
-296.52374 -237.21896 604.0
-294.2234 -238.78995 608.0
-290.9131 -239.57545 610.0
-287.57474 -240.36095 612.0
-284.2083 -241.14645 614.0
-280.81387 -241.93193 616.0
-277.39136 -242.71744 618.0
-273.9408 -243.50291 620.0
-270.897 -244.68115 623.0
-268.23895 -246.25214 627.0
-264.6832 -247.03764 629.0
-262.34076 -249.00136 634.0
-258.70786 -249.78687 636.0
-255.04688 -250.57236 638.0
-251.75061 -251.75058 641.0
-311.8128 -227.8632 570.0
-311.05536 -230.26176 576.0
-309.68076 -232.26056 581.0
-307.71002 -233.8596 585.0
-306.20215 -235.8584 590.0
-304.11218 -237.45746 594.0
-301.46112 -238.65672 597.0
-299.26596 -240.25577 601.0
-296.52374 -241.45506 604.0
-294.2234 -243.0541 608.0
-290.9131 -243.8536 610.0
-287.57474 -244.65314 612.0
-283.74545 -245.0529 613.0
-280.358 -245.8524 615.0
-277.39136 -247.0517 618.0
-273.9408 -247.8512 620.0
-270.4622 -248.65073 622.0
-268.23895 -250.64954 627.0
-265.104 -251.8488 630.0
-262.34076 -253.44786 634.0
-258.70786 -254.24736 636.0
-254.64713 -254.64713 637.0
-312.35986 -232.26758 571.0
-311.05536 -234.30147 576.0
-309.68076 -236.33531 581.0
-307.71002 -237.9624 585.0
-306.20215 -239.99628 590.0
-304.11218 -241.62337 594.0
-301.46112 -242.84369 597.0
-299.26596 -244.47078 601.0
-296.52374 -245.6911 604.0
-293.25552 -246.50465 606.0
-290.4362 -247.72496 609.0
-287.10483 -248.53851 611.0
-283.74545 -249.35207 613.0
-279.90213 -249.75882 614.0
-276.0448 -250.1656 615.0
-273.499 -251.79271 619.0
-270.02737 -252.60626 621.0
-267.38333 -254.23334 625.0
-264.6832 -255.86043 629.0
-261.0994 -256.67398 631.0
-257.89432 -257.89432 634.0
-312.9069 -236.68597 572.0
-311.05536 -238.34113 576.0
-309.68076 -240.41005 581.0
-308.76202 -242.89278 587.0
-306.72113 -244.54793 591.0
-304.62415 -246.20306 595.0
-301.9661 -247.44443 598.0
-298.768 -248.272 600.0
-296.0328 -249.51337 603.0
-292.2877 -249.92715 604.0
-289.95926 -251.5823 608.0
-286.63495 -252.40985 610.0
-282.81967 -252.82365 611.0
-279.90213 -254.06502 614.0
-276.0448 -254.4788 615.0
-273.05713 -255.72017 618.0
-269.59253 -256.54773 620.0
-266.95554 -258.20288 624.0
-264.26242 -259.85803 628.0
-261.0994 -261.0994 631.0
-257.08075 -261.51318 632.0
-249.78688 -263.16833 636.0
-245.32642 -263.16833 636.0
-242.75954 -265.23724 641.0
-238.6357 -265.65103 642.0
-234.8625 -266.4786 644.0
-231.06128 -267.30618 646.0
-226.88135 -267.71997 647.0
-222.68736 -268.13376 648.0
-218.81602 -268.96133 650.0
-215.24622 -270.2027 653.0

