ply
format ascii 1.0
comment made by @arthurmuchir
element vertex 971
property float x
property float y
property float z
end_header
-85.56968 -110.01818 581.0
-81.35467 -109.82881 580.0
-76.88718 -109.26073 577.0
-72.84049 -109.26073 577.0
-69.15146 -109.82881 580.0
-93.23527 -113.50379 578.0
-89.18154 -113.50379 578.0
-84.98056 -113.30743 577.0
-80.653336 -112.91467 575.0
-76.354164 -112.52193 573.0
-72.20929 -112.325554 572.0
-67.95919 -111.932816 570.0
-96.952324 -117.150734 576.0
-92.91264 -117.150734 576.0
-88.56437 -116.74395 574.0
-84.244156 -116.33717 572.0
-79.952 -115.9304 570.0
-75.421394 -115.11686 566.0
-71.45185 -115.11686 566.0
-67.839966 -115.72701 569.0
-100.992004 -121.1904 576.0
-96.61569 -120.7696 574.0
-92.428734 -120.5592 573.0
-88.25578 -120.3488 572.0
-83.50776 -119.2968 567.0
-79.25067 -118.876 565.0
-75.15489 -118.6656 564.0
-71.19937 -118.6656 564.0
-67.60152 -119.2968 567.0
-109.26072 -125.447495 577.0
-105.031685 -125.23007 576.0
-100.466 -124.577835 573.0
-96.279045 -124.36042 572.0
-91.94481 -123.9256 570.0
-87.79291 -123.70819 569.0
-83.36048 -123.05594 566.0
-79.25067 -122.83853 565.0
-74.88838 -122.186295 562.0
-70.94689 -122.186295 562.0
-138.4432 -126.57664 564.0
-134.24924 -126.35221 563.0
-113.70017 -129.94304 579.0
-109.26072 -129.49417 577.0
-104.666985 -128.82089 574.0
-100.29067 -128.37204 572.0
-96.110725 -128.14763 571.0
-91.6222 -127.47434 568.0
-87.484314 -127.249916 567.0
-83.2132 -126.801056 565.0
-79.25067 -126.801056 565.0
-82.35057 -138.69566 618.0
-78.14257 -138.92009 619.0
-73.920525 -139.14453 620.0
-69.68448 -139.36896 621.0
-146.61374 -130.76358 565.0
-142.39871 -130.53215 564.0
-138.4432 -130.53215 564.0
-133.77232 -129.83783 561.0
-129.60641 -129.60638 560.0
-126.127785 -130.06927 562.0
-122.83854 -130.76358 565.0
-117.5575 -133.77231 578.0
-113.30743 -133.54086 577.0
-108.881996 -133.07799 575.0
-104.48464 -132.61511 573.0
-100.466 -132.61511 573.0
-96.110725 -132.15224 571.0
-91.46089 -131.22647 567.0
-87.484314 -131.22647 567.0
-90.28264 -141.87271 613.0
-85.98347 -141.87271 613.0
-81.81756 -142.10416 614.0
-77.763855 -142.56702 616.0
-73.80131 -143.26135 619.0
-160.18454 -136.15688 571.0
-156.45345 -136.39532 572.0
-151.1093 -135.20305 567.0
-146.35423 -134.4877 564.0
-142.14624 -134.24924 563.0
-138.19774 -134.24924 563.0
-130.67244 -130.67244 548.0
-127.523445 -131.3878 551.0
-124.78123 -132.58008 556.0
-122.186295 -134.01079 562.0
-118.87601 -134.72614 565.0
-116.947334 -137.11069 575.0
-113.111046 -137.34914 576.0
-108.881996 -137.11069 575.0
-104.849335 -137.11069 575.0
-100.641335 -136.87222 574.0
-96.279045 -136.39532 572.0
-91.46089 -135.20305 567.0
-93.96464 -145.2181 609.0
-89.840805 -145.45654 610.0
-85.702934 -145.695 611.0
-81.55105 -145.93346 612.0
-77.51137 -146.41037 614.0
-73.44362 -146.88727 616.0
-169.37201 -141.14334 575.0
-164.4767 -140.40694 572.0
-159.62347 -139.67055 569.0
-155.35936 -139.42506 568.0
-150.84279 -138.93414 566.0
-146.35423 -138.4432 564.0
-142.14624 -138.19774 563.0
-133.77934 -133.77934 545.0
-129.95708 -133.77934 545.0
-126.36625 -134.02481 546.0
-124.10794 -135.74307 553.0
-121.96888 -137.70682 561.0
-118.45521 -138.19774 563.0
-116.54057 -140.65242 573.0
-112.7183 -140.89787 574.0
-109.07136 -141.38881 576.0
-105.031685 -141.38881 576.0
-100.81667 -141.14334 575.0
-101.66529 -148.26187 604.0
-97.751854 -148.7528 606.0
-93.501755 -148.7528 606.0
-89.54624 -149.24374 608.0
-85.56267 -149.73466 610.0
-81.41779 -149.98015 611.0
-77.38513 -150.47107 613.0
-162.59712 -139.36897 552.0
-158.72577 -139.36897 552.0
-155.13493 -139.62144 553.0
-155.63289 -143.66113 569.0
-147.64471 -139.87393 554.0
-146.09474 -142.14624 563.0
-137.09663 -137.09665 543.0
-131.07921 -134.82433 534.0
-128.52635 -136.08673 539.0
-125.44049 -136.84416 542.0
-122.536964 -137.85408 546.0
-120.3488 -144.41856 572.0
-116.54057 -144.67105 573.0
-112.91468 -145.176 575.0
-109.07136 -145.42848 576.0
-105.031685 -145.42848 576.0
-105.375336 -151.74048 601.0
-101.160324 -151.74048 601.0
-97.26794 -152.24545 603.0
-93.03887 -152.24545 603.0
-89.25168 -153.00288 606.0
-85.4224 -153.76033 609.0
-81.55105 -154.51776 612.0
-180.6354 -142.20235 548.0
-176.79211 -142.20235 548.0
-172.63321 -141.94286 547.0
-169.1055 -142.20235 548.0
-165.56378 -142.46185 549.0
-161.71342 -142.46185 549.0
-158.15067 -142.72133 550.0
-154.57387 -142.98082 551.0
-150.70953 -142.98082 551.0
-147.1117 -143.24031 552.0
-143.24033 -143.24031 552.0
-139.11649 -142.98082 551.0
-130.3428 -137.79097 531.0
-127.095634 -138.30995 533.0
-124.977615 -140.1264 540.0
-122.536964 -141.68336 546.0
-120.559204 -148.68968 573.0
-116.74396 -148.94917 574.0
-113.111046 -149.46817 576.0
-109.07136 -149.46817 576.0
-108.49627 -154.39853 595.0
-104.849335 -155.17702 598.0
-100.992004 -155.696 600.0
-96.94532 -155.95549 601.0
-92.88458 -156.21498 602.0
-89.25168 -157.25296 606.0
-85.4224 -158.03145 609.0
-179.97617 -145.51263 546.0
-176.14688 -145.51263 546.0
-172.31761 -145.51263 546.0
-168.48834 -145.51263 546.0
-164.65904 -145.51263 546.0
-161.12431 -145.77914 547.0
-157.57558 -146.04564 548.0
-153.73227 -146.04564 548.0
-150.16249 -146.31215 549.0
-146.57867 -146.57867 550.0
-142.46184 -146.31215 549.0
-133.30943 -140.71552 528.0
-129.85187 -140.98203 529.0
-126.38027 -141.24854 530.0
-124.05185 -142.84758 536.0
-112.10112 -157.77194 592.0
-108.13157 -158.03845 593.0
-104.49867 -158.83798 596.0
-100.82369 -159.6375 599.0
-96.94532 -160.1705 601.0
-93.03887 -160.70352 603.0
-89.25168 -161.50304 606.0
-182.79553 -148.52135 543.0
-178.98727 -148.52135 543.0
-175.17905 -148.52135 543.0
-171.6864 -148.79488 544.0
-167.87115 -148.79488 544.0
-164.35747 -149.0684 545.0
-160.82976 -149.34192 546.0
-157.00047 -149.34192 546.0
-153.45174 -149.61543 547.0
-149.88896 -149.88895 548.0
-146.31218 -150.16248 549.0
-142.46184 -150.16248 549.0
-132.552 -143.598 525.0
-128.87001 -143.598 525.0
-125.903366 -144.41855 528.0
-122.894646 -145.23912 531.0
-116.056656 -161.65031 591.0
-112.10112 -161.92383 592.0
-108.13157 -162.19736 593.0
-104.32333 -162.7444 595.0
-100.82369 -163.83847 599.0
-96.94532 -164.38551 601.0
-186.26012 -152.04906 542.0
-182.12225 -151.76852 541.0
-177.99841 -151.48799 540.0
-174.53381 -151.76852 541.0
-171.0552 -152.04906 542.0
-167.87115 -152.61012 544.0
-164.35747 -152.89066 545.0
-160.24063 -152.61012 544.0
-156.71294 -152.89066 545.0
-153.45174 -153.45174 547.0
-150.16249 -154.01279 549.0
-146.31218 -154.01279 549.0
-142.72133 -154.29333 550.0
-132.04704 -146.71893 523.0
-128.37907 -146.71893 523.0
-125.42646 -147.56053 526.0
-119.59137 -164.95358 588.0
-115.6639 -165.23413 589.0
-111.7224 -165.51466 590.0
-107.94923 -166.07573 592.0
-103.97267 -166.35626 593.0
-100.487045 -167.4784 597.0
-189.71068 -155.56273 541.0
-185.5728 -155.27519 540.0
-181.44897 -154.98764 539.0
-177.33914 -154.70009 538.0
-173.88858 -154.98764 539.0
-170.42401 -155.27519 540.0
-166.9454 -155.56273 541.0
-164.05591 -156.42537 544.0
-160.24063 -156.42537 544.0
-157.00047 -157.00047 546.0
-153.45174 -157.28801 547.0
-150.436 -158.15067 550.0
-146.84518 -158.4382 551.0
-142.46184 -157.8631 549.0
-131.79456 -150.09935 522.0
-128.1336 -150.09935 522.0
-124.711105 -150.38689 523.0
-122.873604 -167.92723 584.0
-119.59137 -169.07742 588.0
-115.46754 -169.07742 588.0
-111.91175 -169.94006 591.0
-107.94923 -170.22762 592.0
-103.97267 -170.51517 593.0
-193.1472 -159.06241 540.0
-189.00934 -158.76785 539.0
-184.54185 -158.17873 537.0
-180.43906 -157.88417 536.0
-177.00952 -158.17873 537.0
-173.56598 -158.4733 538.0
-170.42401 -159.06241 540.0
-166.63681 -159.06241 540.0
-163.45276 -159.65154 542.0
-160.24063 -160.24065 544.0
-157.28802 -161.12433 547.0
-154.29333 -162.00801 550.0
-150.436 -162.00801 550.0
-151.1093 -167.01553 567.0
-147.39221 -167.31009 568.0
-144.16608 -168.19377 571.0
-140.16147 -168.19377 571.0
-136.39531 -168.48833 572.0
-132.61513 -168.7829 573.0
-129.49419 -169.96114 577.0
-125.88232 -170.55025 579.0
-122.452805 -171.43393 582.0
-119.38798 -172.90672 587.0
-115.6639 -173.49585 589.0
-111.7224 -173.79042 590.0
-195.47563 -161.64333 536.0
-192.07416 -161.94489 537.0
-187.95734 -161.64333 536.0
-184.1982 -161.64333 536.0
-179.76578 -161.04016 534.0
-176.35027 -161.34174 535.0
-173.24336 -161.94489 537.0
-170.10841 -162.54803 539.0
-166.63681 -162.84961 540.0
-163.45276 -163.45276 542.0
-160.24063 -164.05591 544.0
-157.28802 -164.96062 547.0
-154.57387 -166.16692 551.0
-154.81233 -170.69052 566.0
-151.1093 -170.99208 567.0
-147.6517 -171.59523 569.0
-144.16608 -172.19838 571.0
-140.16147 -172.19838 571.0
-136.39531 -172.49995 572.0
-132.84657 -173.1031 574.0
-129.26976 -173.70625 576.0
-125.88232 -174.61096 579.0
-122.452805 -175.51569 582.0
-118.9812 -176.42041 585.0
-115.46754 -177.32513 588.0
-111.533035 -177.62671 589.0
-195.11095 -165.09387 535.0
-191.00111 -164.78528 534.0
-187.25601 -164.78528 534.0
-183.16724 -164.4767 533.0
-179.76578 -164.78528 534.0
-176.02063 -164.78528 534.0
-172.59814 -165.09387 535.0
-169.7928 -166.01964 538.0
-166.63681 -166.6368 540.0
-163.15118 -166.94539 541.0
-160.82976 -168.48831 546.0
-157.00047 -168.48831 546.0
-158.22081 -174.04288 564.0
-154.5388 -174.35147 565.0
-151.1093 -174.96864 567.0
-147.6517 -175.58582 569.0
-144.16608 -176.20299 571.0
-140.40694 -176.51158 572.0
-136.63377 -176.82016 573.0
-133.07802 -177.43735 575.0
-129.49419 -178.0545 577.0
-125.88232 -178.67168 579.0
-122.2424 -179.28886 581.0
-118.9812 -180.5232 585.0
-115.27116 -181.14038 587.0
-199.23479 -169.1616 536.0
-194.74623 -168.5304 534.0
-190.64345 -168.2148 533.0
-186.55467 -167.8992 532.0
-182.82358 -167.8992 532.0
-179.42914 -168.2148 533.0
-176.02063 -168.5304 534.0
-172.27551 -168.5304 534.0
-169.4772 -169.4772 537.0
-166.63681 -170.424 540.0
-163.75433 -171.3708 543.0
-160.82976 -172.3176 546.0
-157.65974 -177.3672 562.0
-154.5388 -178.314 565.0
-151.1093 -178.9452 567.0
-147.39221 -179.2608 568.0
-143.9136 -179.892 570.0
-140.40694 -180.5232 572.0
-136.63377 -180.8388 573.0
-132.84657 -181.1544 574.0
-129.26976 -181.7856 576.0
-125.66491 -182.4168 578.0
-122.2424 -183.3636 581.0
-118.57443 -183.9948 583.0
-203.37265 -173.24335 537.0
-198.49138 -172.27551 534.0
-194.01686 -171.6303 532.0
-189.92807 -171.30768 531.0
-185.85333 -170.98506 530.0
-182.13628 -170.98506 530.0
-178.75584 -171.30768 531.0
-175.69101 -171.95291 533.0
-172.59814 -172.59813 535.0
-169.4772 -173.24335 537.0
-166.63681 -174.2112 540.0
-163.75433 -175.17903 543.0
-157.88416 -172.92075 536.0
-161.31367 -180.98608 561.0
-157.65974 -181.3087 562.0
-154.5388 -182.27654 565.0
-150.84279 -182.59914 566.0
-147.13272 -182.92175 567.0
-143.66112 -183.56699 569.0
-139.916 -183.8896 570.0
-136.15686 -184.21222 571.0
-132.3837 -184.53482 572.0
-128.8209 -185.18005 574.0
-125.23008 -185.82527 576.0
-122.032005 -187.11572 580.0
-118.167656 -187.43834 581.0
-96.78401 -193.568 600.0
-92.88458 -194.21323 602.0
-89.25168 -195.50368 606.0
-85.4224 -196.47151 609.0
-81.41779 -197.11674 611.0
-77.51137 -198.0846 614.0
-212.47594 -178.32802 541.0
-207.91028 -177.66876 539.0
-202.6152 -176.35027 535.0
-198.11967 -175.69101 533.0
-193.65216 -175.03175 531.0
-189.92807 -175.03175 531.0
-185.85333 -174.70213 530.0
-182.13628 -174.70213 530.0
-178.4192 -174.70213 530.0
-175.36139 -175.36137 532.0
-172.27551 -176.02063 534.0
-169.4772 -177.00952 537.0
-166.9454 -178.32802 541.0
-163.75433 -178.98727 543.0
-157.88416 -176.67989 536.0
-160.73859 -184.26129 559.0
-157.65974 -185.25018 562.0
-154.5388 -186.23906 565.0
-150.57628 -186.23906 565.0
-146.61374 -186.23906 565.0
-142.90369 -186.56868 566.0
-139.42508 -187.22794 568.0
-135.67996 -187.55757 569.0
-131.9208 -187.88719 570.0
-128.37206 -188.54645 572.0
-124.79525 -189.20569 574.0
-121.4008 -190.19458 577.0
-117.96427 -191.18346 580.0
-114.68204 -192.50197 584.0
-110.96495 -193.16122 586.0
-107.40218 -194.1501 589.0
-103.79734 -195.13898 592.0
-99.81377 -195.46861 593.0
-96.30009 -196.78712 597.0
-92.576 -197.77599 600.0
-88.80984 -198.76488 603.0
-85.14187 -200.08337 607.0
-81.28454 -201.07227 610.0
-77.25889 -201.73152 612.0
-243.43282 -179.76575 534.0
-239.23883 -179.42911 533.0
-220.06439 -182.12224 541.0
-215.8704 -181.78558 540.0
-212.0832 -181.78558 540.0
-207.13881 -180.77567 537.0
-202.2365 -179.76575 534.0
-197.74796 -179.09247 532.0
-193.28748 -178.41919 530.0
-189.5704 -178.41919 530.0
-185.50267 -178.08255 529.0
-182.13628 -178.41919 530.0
-178.75584 -178.75583 531.0
-175.69101 -179.42911 533.0
-172.27551 -179.76575 534.0
-170.10841 -181.44896 539.0
-167.56256 -182.7955 543.0
-164.35747 -183.46878 545.0
-164.06992 -187.50847 557.0
-160.45105 -187.84511 558.0
-157.37921 -188.85504 561.0
-153.71825 -189.19167 562.0
-150.04327 -189.5283 563.0
-146.61374 -190.20158 565.0
-142.6512 -190.20158 565.0
-138.68867 -190.20158 565.0
-135.20305 -190.87486 567.0
-131.45793 -191.2115 568.0
-127.69878 -191.54816 569.0
-124.57784 -192.8947 573.0
-120.76961 -193.23135 574.0
-117.760895 -194.91455 579.0
-114.092926 -195.58783 581.0
-110.58624 -196.59775 584.0
-107.03749 -197.60767 587.0
-103.44667 -198.61758 590.0
-99.64545 -199.29086 592.0
-95.97748 -200.30078 595.0
-92.11311 -200.97408 597.0
-88.368004 -201.984 600.0
-84.72107 -203.33055 604.0
-81.15129 -205.01375 609.0
-77.13265 -205.68703 611.0
-255.9937 -181.79262 529.0
-252.28365 -181.79262 529.0
-248.10368 -181.44897 528.0
-244.40065 -181.44897 528.0
-241.60934 -182.13629 530.0
-238.34114 -182.47993 531.0
-237.41536 -187.63474 546.0
-233.58607 -187.63474 546.0
-228.07361 -186.26012 542.0
-224.27238 -186.26012 542.0
-219.65761 -185.57281 540.0
-215.47063 -185.22916 539.0
-211.29771 -184.88551 538.0
-206.36734 -183.85454 535.0
-202.2365 -183.5109 534.0
-197.74796 -182.8236 532.0
-193.28748 -182.13629 530.0
-189.5704 -182.13629 530.0
-185.85333 -182.13629 530.0
-182.13628 -182.13629 530.0
-179.0925 -182.8236 532.0
-175.69101 -183.16724 533.0
-172.92075 -184.1982 536.0
-170.42401 -185.57281 540.0
-168.17973 -187.29108 545.0
-165.2622 -188.32204 548.0
-163.77536 -191.07127 556.0
-160.1635 -191.41492 557.0
-156.53761 -191.75858 558.0
-152.89769 -192.10222 559.0
-149.51025 -192.78954 561.0
-145.83525 -193.1332 562.0
-142.39871 -193.8205 564.0
-138.68867 -194.16414 565.0
-134.72614 -194.16414 565.0
-130.99504 -194.5078 566.0
-127.47434 -195.19511 568.0
-124.36043 -196.56972 572.0
-120.559204 -196.91338 573.0
-117.35411 -198.288 577.0
-113.896545 -199.31894 580.0
-110.58624 -200.69357 584.0
-106.85515 -201.38087 586.0
-103.27134 -202.41182 589.0
-99.47713 -203.09914 591.0
-95.65487 -203.78644 593.0
-92.11311 -205.16104 597.0
-88.368004 -206.19202 600.0
-84.72107 -207.56662 604.0
-80.88478 -208.5976 607.0
-77.00641 -209.62854 610.0
-260.92404 -183.74934 524.0
-257.24908 -183.74934 524.0
-254.54195 -184.45067 526.0
-250.85292 -184.45067 526.0
-246.69402 -184.1 525.0
-243.01201 -184.1 525.0
-239.78587 -184.45067 526.0
-237.44344 -185.50267 529.0
-238.59361 -189.36002 540.0
-235.24123 -189.71068 541.0
-231.87483 -190.06134 542.0
-227.6528 -189.71068 541.0
-223.44481 -189.36002 540.0
-218.4373 -188.30801 537.0
-214.67113 -188.30801 537.0
-210.5122 -187.95734 536.0
-205.98161 -187.25601 534.0
-202.2365 -187.25601 534.0
-197.74796 -186.55467 532.0
-193.28748 -185.85335 530.0
-189.5704 -185.85335 530.0
-185.85333 -185.85335 530.0
-182.47993 -186.20401 531.0
-179.0925 -186.55467 532.0
-176.02063 -187.25601 534.0
-173.56598 -188.65868 538.0
-171.3708 -190.41202 543.0
-168.48834 -191.46402 546.0
-166.16692 -193.21735 551.0
-163.18623 -194.26935 554.0
-159.30086 -194.26935 554.0
-155.97653 -194.97067 556.0
-152.35065 -195.32133 557.0
-148.71074 -195.67201 558.0
-145.05676 -196.02267 559.0
-141.64128 -196.72401 561.0
-137.95227 -197.07468 562.0
-134.48769 -197.77602 564.0
-130.76361 -198.12668 565.0
-127.249916 -198.82802 567.0
-123.925606 -199.88002 570.0
-120.559204 -200.932 573.0
-117.15073 -201.98401 576.0
-113.896545 -203.38667 580.0
-110.39687 -204.43867 583.0
-106.672806 -205.14001 585.0
-103.27134 -206.54266 589.0
-99.64545 -207.59467 592.0
-95.81617 -208.29602 594.0
-92.11311 -209.348 597.0
-88.368004 -210.40001 600.0
-279.832 -190.28577 532.0
-278.17688 -191.71648 536.0
-268.27405 -187.42433 524.0
-265.104 -187.782 525.0
-260.92404 -187.42433 524.0
-257.24908 -187.42433 524.0
-253.09016 -187.06665 523.0
-249.42221 -187.06665 523.0
-244.81444 -186.35129 521.0
-241.16048 -186.35129 521.0
-237.50655 -186.35129 521.0
-234.7503 -187.06665 523.0
-238.59361 -193.1472 540.0
-234.80641 -193.1472 540.0
-230.59138 -192.78954 539.0
-225.9696 -192.07416 537.0
-222.20345 -192.07416 537.0
-218.03052 -191.71648 536.0
-213.87161 -191.3588 535.0
-209.72672 -191.00113 534.0
-205.98161 -191.00113 534.0
-201.85776 -190.64345 533.0
-197.37625 -189.92809 531.0
-193.28748 -189.5704 530.0
-189.5704 -189.5704 530.0
-185.85333 -189.5704 530.0
-182.47993 -189.92809 531.0
-179.42914 -190.64345 533.0
-176.35027 -191.3588 535.0
-174.21121 -193.1472 540.0
-172.002 -194.9356 545.0
-169.1055 -196.00865 548.0
-165.86534 -196.724 550.0
-162.30257 -197.08168 551.0
-158.72577 -197.43936 552.0
-155.41547 -198.15472 554.0
-151.53009 -198.15472 554.0
-148.17772 -198.87009 556.0
-144.53778 -199.22777 557.0
-140.88383 -199.58545 558.0
-137.46133 -200.3008 560.0
-134.01079 -201.01616 562.0
-130.76361 -202.0892 565.0
-127.0255 -202.44688 566.0
-123.70818 -203.51993 569.0
-120.559204 -204.95065 573.0
-117.15073 -206.02368 576.0
-113.70017 -207.09673 579.0
-110.20752 -208.16977 582.0
-106.672806 -209.2428 585.0
-103.27134 -210.67352 589.0
-99.81377 -212.10425 593.0
-282.43396 -190.73462 523.0
-277.69995 -190.00522 521.0
-274.04602 -190.00522 521.0
-269.87308 -189.64053 520.0
-266.73813 -190.00522 521.0
-263.5891 -190.36992 522.0
-259.4302 -190.00522 521.0
-255.28534 -189.64053 520.0
-250.67056 -188.91115 518.0
-246.56076 -188.54646 517.0
-242.46497 -188.18176 516.0
-238.84608 -188.18176 516.0
-235.68307 -188.54646 517.0
-232.50603 -188.91115 518.0
-237.2681 -195.84032 537.0
-233.0671 -195.47562 536.0
-229.30794 -195.47562 536.0
-225.128 -195.11093 535.0
-220.9621 -194.74625 534.0
-217.21698 -194.74625 534.0
-213.47183 -194.74625 534.0
-209.33398 -194.38156 533.0
-205.59587 -194.38156 533.0
-201.47905 -194.01686 532.0
-197.00455 -193.28748 530.0
-193.28748 -193.28748 530.0
-189.5704 -193.28748 530.0
-185.85333 -193.28748 530.0
-182.82358 -194.01686 532.0
-179.76578 -194.74625 534.0
-176.6799 -195.47562 536.0
-174.85643 -197.66379 542.0
-172.31761 -199.12256 546.0
-168.79692 -199.48726 547.0
-165.2622 -199.85196 548.0
-161.71342 -200.21664 549.0
-158.4382 -200.94603 551.0
-155.13493 -201.67542 553.0
-151.53009 -202.0401 554.0
-147.64471 -202.0401 554.0
-144.0188 -202.4048 555.0
-140.63136 -203.13419 557.0
-137.21587 -203.86357 559.0
-133.77232 -204.59297 561.0
-130.53217 -205.68704 564.0
-127.0255 -206.41643 566.0
-123.70818 -207.51051 569.0
-120.559204 -208.96928 573.0
-116.947334 -209.69867 575.0
-281.1786 -191.05722 514.0
-279.1938 -192.17235 517.0
-276.10092 -192.54405 518.0
-271.94202 -192.17235 517.0
-268.31613 -192.17235 517.0
-264.69022 -192.17235 517.0
-259.04446 -190.68552 513.0
-255.44666 -190.68552 513.0
-252.33974 -191.05722 514.0
-248.7349 -191.05722 514.0
-245.13005 -191.05722 514.0
-241.52516 -191.05722 514.0
-237.92032 -191.05722 514.0
-234.31548 -191.05722 514.0
-231.60834 -191.80063 516.0
-235.94258 -198.49135 534.0
-232.19743 -198.49135 534.0
-228.45232 -198.49135 534.0
-224.70721 -198.49135 534.0
-220.5483 -198.11964 533.0
-216.40343 -197.74794 532.0
-212.67232 -197.74794 532.0
-208.94124 -197.74794 532.0
-204.8244 -197.37624 531.0
-201.10034 -197.37624 531.0
-197.00455 -197.00453 530.0
-193.28748 -197.00453 530.0
-189.5704 -197.00453 530.0
-186.20401 -197.37624 531.0
-183.16724 -198.11964 533.0
-180.1024 -198.86307 535.0
-177.66876 -200.3499 539.0
-175.17905 -201.83672 543.0
-171.6864 -202.20842 544.0
-168.48834 -202.95183 546.0
-164.65904 -202.95183 546.0
-161.12431 -203.32355 547.0
-157.86311 -204.06696 549.0
-154.57387 -204.81038 551.0
-150.70953 -204.81038 551.0
-147.3782 -205.55379 553.0
-143.7593 -205.92549 554.0
-140.1264 -206.2972 555.0
-136.9704 -207.41232 558.0
-133.77232 -208.52744 561.0
-130.76361 -210.01427 565.0
-127.0255 -210.38597 566.0
-280.63153 -194.28336 513.0
-277.5737 -194.66206 514.0
-273.96884 -194.66206 514.0
-270.364 -194.66206 514.0
-266.75916 -194.66206 514.0
-262.13037 -193.90463 512.0
-258.03458 -193.52592 511.0
-253.45485 -192.76846 509.0
-250.376 -193.1472 510.0
-247.28314 -193.52592 511.0
-243.69933 -193.52592 511.0
-240.1155 -193.52592 511.0
-236.99457 -193.90463 512.0
-234.31548 -194.66206 514.0
-230.71063 -194.66206 514.0
-235.94258 -202.23647 534.0
-231.76262 -201.85776 533.0
-227.5967 -201.47903 532.0
-223.8656 -201.47903 532.0
-219.72073 -201.10031 531.0
-215.99666 -201.10031 531.0
-212.27257 -201.10031 531.0
-208.54848 -201.10031 531.0
-204.43867 -200.7216 530.0
-200.7216 -200.7216 530.0
-197.37625 -201.10031 531.0
-193.28748 -200.7216 530.0
-189.92807 -201.10031 531.0
-186.90533 -201.85776 533.0
-183.5109 -202.23647 534.0
-180.7757 -203.37263 537.0
-177.99841 -204.5088 540.0
-174.85643 -205.26624 542.0
-171.6864 -206.02367 544.0
-168.17973 -206.4024 545.0
-164.65904 -206.78111 546.0
-160.82976 -206.78111 546.0
-157.28802 -207.15984 547.0
-154.0128 -207.91727 549.0
-150.70953 -208.67471 551.0
-147.3782 -209.43216 553.0
-143.7593 -209.81087 554.0
-140.37889 -210.56831 556.0
-136.9704 -211.32576 558.0
-134.01079 -212.84064 562.0
-277.3493 -195.56679 507.0
-275.95364 -197.10973 511.0
-270.77078 -195.95253 508.0
-267.208 -195.95253 508.0
-263.12625 -195.56679 507.0
-259.5705 -195.56679 507.0
-256.0147 -195.56679 507.0
-252.45897 -195.56679 507.0
-249.39415 -195.95253 508.0
-246.79921 -196.72398 510.0
-243.22241 -196.72398 510.0
-239.64561 -196.72398 510.0
-236.53168 -197.10973 511.0
-232.94788 -197.10973 511.0
-230.26176 -197.88118 513.0
-227.5476 -198.65266 515.0
-230.0233 -204.05293 529.0
-226.74107 -204.43866 530.0
-223.024 -204.43866 530.0
-218.89316 -204.05293 529.0
-215.18312 -204.05293 529.0
-211.47304 -204.05293 529.0
-208.15575 -204.43866 530.0
-204.43867 -204.43866 530.0
-200.7216 -204.43866 530.0
-197.37625 -204.82439 531.0
-194.01686 -205.21013 532.0
-190.64345 -205.59586 533.0
-187.25601 -205.98158 534.0
-183.85454 -206.36732 535.0
-180.7757 -207.1388 537.0
-177.99841 -208.29599 540.0
-174.21121 -208.29599 540.0
-171.0552 -209.06746 542.0
-167.56256 -209.45319 543.0
-164.05591 -209.83893 544.0
-160.5352 -210.22466 545.0
-157.00047 -210.61038 546.0
-153.45174 -210.99612 547.0
-150.436 -212.15334 550.0
-147.3782 -213.31053 553.0
-143.7593 -213.69626 554.0
-140.63136 -214.85345 557.0
-274.6141 -197.15881 502.0
-272.17343 -197.9443 504.0
-269.17175 -198.33705 505.0
-265.63 -198.33705 505.0
-262.0883 -198.33705 505.0
-258.54654 -198.33705 505.0
-255.50977 -198.7298 506.0
-252.45897 -199.12256 507.0
-248.90321 -199.12256 507.0
-245.83136 -199.51529 508.0
-241.7917 -199.12256 507.0
-238.23592 -199.12256 507.0
-234.68016 -199.12256 507.0
-231.1244 -199.12256 507.0
-228.46635 -199.90805 509.0
-232.8497 -206.97748 527.0
-229.15366 -206.97748 527.0
-225.88545 -207.37022 528.0
-221.76161 -206.97748 527.0
-218.47937 -207.37022 528.0
-215.18312 -207.76297 529.0
-211.47304 -207.76297 529.0
-208.15575 -208.15572 530.0
-204.8244 -208.54848 531.0
-201.47905 -208.94121 532.0
-198.11967 -209.33397 533.0
-194.74623 -209.7267 534.0
-191.00111 -209.7267 534.0
-187.60667 -210.11946 535.0
-184.1982 -210.51219 536.0
-181.11234 -211.2977 538.0
-177.66876 -211.69044 539.0
-174.21121 -212.08319 540.0
-170.42401 -212.08319 540.0
-166.9454 -212.47592 541.0
-163.75433 -213.26143 543.0
-160.24063 -213.65417 544.0
-157.00047 -214.43967 546.0
-153.45174 -214.83241 547.0
-150.436 -216.01067 550.0
-147.64471 -217.58165 554.0
-144.53778 -218.75989 557.0
-272.973 -199.48026 499.0
-270.55338 -200.27977 501.0
-267.5727 -200.67953 502.0
-264.578 -201.0793 503.0
-261.5693 -201.47905 504.0
-258.54654 -201.87881 505.0
-254.49983 -201.47905 504.0
-250.46718 -201.0793 503.0
-246.93947 -201.0793 503.0
-243.41176 -201.0793 503.0
-239.88408 -201.0793 503.0
-236.35634 -201.0793 503.0
-233.29152 -201.47905 504.0
-229.7568 -201.47905 504.0
-227.56865 -202.67833 507.0
-232.8497 -210.67352 527.0
-228.71883 -210.27376 526.0
-225.45763 -210.67352 527.0
-221.76161 -210.67352 527.0
-218.47937 -211.0733 528.0
-215.18312 -211.47305 529.0
-211.8728 -211.87282 530.0
-208.54848 -212.27257 531.0
-205.59587 -213.0721 533.0
-202.2365 -213.47185 534.0
-198.86307 -213.87161 535.0
-195.11095 -213.87161 535.0
-191.35881 -213.87161 535.0
-187.95734 -214.27136 536.0
-184.54185 -214.67113 537.0
-181.11234 -215.07089 538.0
-177.33914 -215.07089 538.0
-174.21121 -215.8704 540.0
-170.73961 -216.27017 541.0
-167.25398 -216.66994 542.0
-163.75433 -217.0697 543.0
-160.24063 -217.46947 544.0
-157.00047 -218.26897 546.0
-153.73227 -219.0685 548.0
-150.70953 -220.26776 551.0
-271.33185 -201.75958 496.0
-269.4733 -202.97989 499.0
-265.97366 -202.97989 499.0
-264.052 -204.20023 502.0
-260.5313 -204.20023 502.0
-255.47472 -202.97989 499.0
-251.97504 -202.97989 499.0
-248.97334 -203.38667 500.0
-245.95761 -203.79344 501.0
-242.92786 -204.20023 502.0
-238.93025 -203.79344 501.0
-235.41656 -203.79344 501.0
-232.36577 -204.20023 502.0
-229.30095 -204.607 503.0
-226.22209 -205.01376 504.0
-232.40785 -213.96278 526.0
-228.71883 -213.96278 526.0
-225.02982 -213.96278 526.0
-222.1824 -214.77634 528.0
-218.89316 -215.18309 529.0
-215.58987 -215.58989 530.0
-213.07208 -216.8102 533.0
-209.33398 -216.8102 533.0
-205.98161 -217.21696 534.0
-202.6152 -217.62375 535.0
-199.23479 -218.03052 536.0
-195.47563 -218.03052 536.0
-191.71648 -218.03052 536.0
-188.30801 -218.4373 537.0
-184.54185 -218.4373 537.0
-180.7757 -218.4373 537.0
-177.33914 -218.84407 538.0
-174.21121 -219.6576 540.0
-170.73961 -220.06438 541.0
-167.56256 -220.87793 543.0
-164.05591 -221.28471 544.0
-160.5352 -221.69148 545.0
-157.86311 -223.31856 549.0
-154.57387 -224.13213 551.0
-271.33185 -205.23819 496.0
-268.9333 -206.06577 498.0
-264.3746 -205.23819 496.0
-260.37 -204.8244 495.0
-257.41742 -205.23819 496.0
-253.93878 -205.23819 496.0
-250.96512 -205.65198 497.0
-248.47539 -206.47955 499.0
-244.97574 -206.47955 499.0
-241.96 -206.89334 500.0
-238.45334 -206.89334 500.0
-234.94667 -206.89334 500.0
-231.90288 -207.30711 501.0
-228.84508 -207.7209 502.0
-225.32439 -207.7209 502.0
-231.966 -217.238 525.0
-228.71883 -217.6518 526.0
-225.45763 -218.06558 527.0
-222.60321 -218.89316 529.0
-219.30695 -219.30695 530.0
-215.99666 -219.72073 531.0
-213.47183 -220.9621 534.0
-209.72672 -220.9621 534.0
-206.36734 -221.37585 535.0
-203.37265 -222.20343 537.0
-199.60649 -222.20343 537.0
-195.84032 -222.20343 537.0
-191.71648 -221.78964 536.0
-188.30801 -222.20343 537.0
-184.54185 -222.20343 537.0
-181.11234 -222.61722 538.0
-177.66876 -223.031 539.0
-174.21121 -223.4448 540.0
-171.0552 -224.27237 542.0
-167.56256 -224.68617 543.0
-165.56378 -227.1689 549.0

