ply
format ascii 1.0
comment made by @arthurmuchir
element vertex 962
property float x
property float y
property float z
end_header
-102.57001 -102.569984 585.0
-98.63553 -102.74532 586.0
-94.68703 -102.92066 587.0
-110.20752 -106.12575 582.0
-106.12576 -106.12575 582.0
-102.21934 -106.30809 583.0
-98.29889 -106.49044 584.0
-94.36441 -106.67279 585.0
-113.70017 -109.63945 579.0
-109.8288 -109.82881 580.0
-105.76107 -109.82881 580.0
-101.69334 -109.82881 580.0
-97.79392 -110.01818 581.0
-94.2031 -110.58625 584.0
-117.35411 -113.30743 577.0
-113.30743 -113.30743 577.0
-109.26072 -113.30743 577.0
-105.21403 -113.30743 577.0
-101.518005 -113.700165 579.0
-97.79392 -114.09292 581.0
-93.71919 -114.09292 581.0
-120.76961 -116.74395 574.0
-116.74396 -116.74395 574.0
-112.7183 -116.74395 574.0
-109.07136 -117.150734 576.0
-105.21403 -117.3541 577.0
-101.518005 -117.76088 579.0
-97.6256 -117.96427 580.0
-120.559204 -120.5592 573.0
-116.54057 -120.5592 573.0
-112.521935 -120.5592 573.0
-109.07136 -121.1904 576.0
-105.21403 -121.4008 577.0
-101.69334 -122.032 580.0
-128.37206 -124.36042 572.0
-124.14301 -124.14301 571.0
-120.138405 -124.14301 571.0
-116.54057 -124.577835 573.0
-112.521935 -124.577835 573.0
-109.07136 -125.23007 576.0
-105.21403 -125.447495 577.0
-81.6843 -133.27437 613.0
-77.51137 -133.49179 614.0
-73.324394 -133.7092 615.0
-132.15225 -128.14763 571.0
-127.69878 -127.69876 569.0
-123.70818 -127.69876 569.0
-119.928 -127.92319 570.0
-116.33718 -128.37204 572.0
-112.7183 -128.82089 574.0
-109.26072 -129.49417 577.0
-89.54624 -136.45142 608.0
-85.4224 -136.67584 609.0
-81.41779 -137.12468 611.0
-77.13265 -137.12468 611.0
-73.20517 -137.79796 614.0
-69.0112 -138.02238 615.0
-131.68938 -131.68935 569.0
-127.69878 -131.68935 569.0
-123.70818 -131.68935 569.0
-119.928 -131.92079 570.0
-116.54057 -132.61511 573.0
-112.7183 -132.84656 574.0
-109.07136 -133.30943 576.0
-96.94532 -139.09543 601.0
-93.19317 -139.78975 604.0
-89.25168 -140.25262 606.0
-85.0016 -140.25262 606.0
-81.018036 -140.7155 608.0
-77.00641 -141.17839 610.0
-73.08594 -141.87271 613.0
-134.9646 -134.9646 566.0
-130.99504 -134.9646 566.0
-127.249916 -135.20305 567.0
-123.490776 -135.44151 568.0
-120.138405 -136.15688 571.0
-116.54057 -136.63377 573.0
-112.91468 -137.11069 575.0
-100.992004 -143.072 600.0
-96.78401 -143.072 600.0
-92.730286 -143.31047 601.0
-88.66256 -143.54892 602.0
-84.72107 -144.02582 604.0
-80.88478 -144.7412 607.0
-76.880165 -145.2181 609.0
-73.08594 -146.1719 613.0
-138.68867 -138.68867 565.0
-134.72614 -138.68867 565.0
-130.76361 -138.68867 565.0
-127.0255 -138.93414 566.0
-123.490776 -139.42506 568.0
-120.3488 -140.40694 572.0
-116.54057 -140.65242 573.0
-109.408005 -147.28001 600.0
-104.849335 -146.78908 598.0
-100.487045 -146.54361 597.0
-96.30009 -146.54361 597.0
-92.42171 -147.03455 599.0
-88.51528 -147.52547 601.0
-84.72107 -148.26187 604.0
-80.88478 -148.99828 607.0
-147.39221 -143.40865 568.0
-142.90369 -142.90369 566.0
-138.68867 -142.6512 565.0
-134.72614 -142.6512 565.0
-130.76361 -142.6512 565.0
-126.80106 -142.6512 565.0
-123.490776 -143.40865 568.0
-120.138405 -144.16608 571.0
-112.290474 -149.72064 593.0
-107.94923 -149.46817 592.0
-104.148 -149.97313 594.0
-100.150406 -150.2256 595.0
-96.13879 -150.47809 596.0
-92.2674 -150.98305 598.0
-88.51528 -151.74048 601.0
-84.72107 -152.49792 604.0
-150.84279 -146.87323 566.0
-146.61374 -146.61372 565.0
-142.6512 -146.61372 565.0
-138.68867 -146.61372 565.0
-134.72614 -146.61372 565.0
-130.76361 -146.61372 565.0
-127.0255 -146.87323 566.0
-123.490776 -147.39221 568.0
-115.86028 -153.10107 590.0
-111.533035 -152.84158 589.0
-107.58453 -153.10107 590.0
-103.79734 -153.62006 592.0
-99.81377 -153.87955 593.0
-95.97748 -154.39853 595.0
-92.11311 -154.91751 597.0
-149.77676 -149.77673 562.0
-145.83525 -149.77673 562.0
-142.14624 -150.04324 563.0
-138.4432 -150.30975 564.0
-134.72614 -150.57628 565.0
-130.76361 -150.57628 565.0
-127.0255 -150.84277 566.0
-119.59137 -156.70592 588.0
-115.46754 -156.70592 588.0
-111.15432 -156.4394 587.0
-107.21984 -156.70592 588.0
-103.44667 -157.23892 590.0
-99.81377 -158.03845 593.0
-95.97748 -158.57147 595.0
-157.65974 -153.71823 562.0
-153.44473 -153.44472 561.0
-149.51025 -153.44472 561.0
-145.57576 -153.44472 561.0
-141.89377 -153.71823 562.0
-138.4432 -154.26527 564.0
-134.72614 -154.5388 565.0
-130.99504 -154.81232 566.0
-123.2944 -160.28271 586.0
-118.9812 -160.0092 585.0
-114.68204 -159.73567 584.0
-110.7756 -160.0092 585.0
-106.85515 -160.28271 586.0
-103.44667 -161.3768 590.0
-99.81377 -162.19736 593.0
-96.13879 -163.01791 596.0
-160.45105 -156.53758 558.0
-156.81815 -156.81813 559.0
-152.89769 -156.81813 559.0
-148.97725 -156.81813 559.0
-145.57576 -157.37918 561.0
-141.89377 -157.65973 562.0
-138.4432 -158.2208 564.0
-134.72614 -158.50133 565.0
-131.45793 -159.34293 568.0
-130.39189 -162.98985 581.0
-126.53456 -163.27039 582.0
-122.66321 -163.55093 583.0
-118.167656 -162.98985 581.0
-114.28929 -163.27039 582.0
-110.7756 -164.11198 585.0
-106.85515 -164.39253 586.0
-103.27134 -165.23413 589.0
-99.81377 -166.35626 593.0
-172.19136 -160.45102 558.0
-169.18265 -161.31367 561.0
-163.77536 -159.87593 556.0
-160.1635 -160.16348 557.0
-156.53761 -160.45102 558.0
-152.62416 -160.45102 558.0
-148.71074 -160.45102 558.0
-145.05676 -160.73857 559.0
-141.64128 -161.31367 561.0
-138.19774 -161.88876 563.0
-134.72614 -162.46385 565.0
-131.68938 -163.61403 569.0
-129.04533 -165.33931 575.0
-125.88232 -166.4895 579.0
-122.032005 -166.77705 580.0
-117.96427 -166.77705 580.0
-114.092926 -167.0646 581.0
-110.58624 -167.92723 584.0
-106.85515 -168.50233 586.0
-178.72778 -163.18625 554.0
-174.8424 -163.18625 554.0
-170.95703 -163.18625 554.0
-167.07164 -163.18625 554.0
-163.18623 -163.18625 554.0
-159.58841 -163.48082 555.0
-155.97653 -163.77536 556.0
-152.07713 -163.77536 556.0
-148.44423 -164.06993 557.0
-145.05676 -164.65904 559.0
-141.38881 -164.95361 560.0
-137.95227 -165.54272 562.0
-134.72614 -166.4264 565.0
-131.45793 -167.31009 568.0
-128.59648 -168.7829 573.0
-125.23008 -169.66656 576.0
-121.4008 -169.96114 577.0
-117.96427 -170.84482 580.0
-114.092926 -171.13937 581.0
-110.58624 -172.02304 584.0
-71.535995 -176.73601 600.0
-67.44021 -177.03058 601.0
-63.540802 -177.91425 604.0
-59.304752 -177.91425 604.0
-55.25105 -178.50337 606.0
-181.6243 -166.16692 551.0
-177.75995 -166.16692 551.0
-173.58 -165.86534 550.0
-169.72267 -165.86534 550.0
-166.16692 -166.16692 551.0
-162.89168 -166.77007 553.0
-159.01332 -166.77007 553.0
-155.41547 -167.07164 554.0
-152.07713 -167.67477 556.0
-148.44423 -167.97635 557.0
-144.79727 -168.27792 558.0
-141.38881 -168.88107 560.0
-137.7068 -169.18265 561.0
-134.72614 -170.38895 565.0
-131.22649 -170.99208 567.0
-128.14763 -172.19838 571.0
-125.01267 -173.40468 575.0
-121.4008 -174.00783 577.0
-117.760895 -174.61096 579.0
-114.092926 -175.21411 581.0
-83.318405 -179.13457 594.0
-79.01923 -178.833 593.0
-75.23905 -179.73772 596.0
-71.29755 -180.34087 598.0
-67.21579 -180.64244 599.0
-63.330402 -181.54715 602.0
-59.206566 -181.84872 603.0
-55.068707 -182.15031 604.0
-183.80545 -168.48831 546.0
-178.98727 -167.56256 543.0
-173.56598 -166.01964 538.0
-169.7928 -166.01964 538.0
-165.09387 -165.09387 535.0
-161.94489 -165.71104 537.0
-162.30257 -170.03127 551.0
-158.15067 -169.72267 550.0
-154.57387 -170.03127 551.0
-151.53009 -170.95702 554.0
-148.17772 -171.57419 556.0
-144.79727 -172.19136 558.0
-141.38881 -172.80855 560.0
-137.7068 -173.11711 561.0
-134.72614 -174.35147 565.0
-131.22649 -174.96864 567.0
-127.69878 -175.58582 569.0
-124.57784 -176.82016 573.0
-121.19041 -177.74593 576.0
-117.5575 -178.3631 578.0
-90.72447 -181.44896 588.0
-86.74792 -181.75755 589.0
-82.897606 -182.37473 591.0
-78.88598 -182.6833 592.0
-74.986565 -183.30048 594.0
-71.05909 -183.91766 596.0
-66.87914 -183.91766 596.0
-63.120003 -185.152 600.0
-59.10838 -185.76918 602.0
-186.60376 -171.3708 543.0
-181.11234 -169.7928 538.0
-176.35027 -168.846 535.0
-172.27551 -168.5304 534.0
-168.53041 -168.5304 534.0
-164.7853 -168.5304 534.0
-161.04018 -168.5304 534.0
-157.29503 -168.5304 534.0
-153.83748 -168.846 535.0
-150.36588 -169.1616 536.0
-146.60674 -169.1616 536.0
-143.11409 -169.4772 537.0
-139.86691 -170.1084 539.0
-136.3392 -170.424 540.0
-138.19774 -177.6828 563.0
-134.48769 -177.9984 564.0
-130.99504 -178.6296 566.0
-127.69878 -179.5764 569.0
-124.36043 -180.5232 572.0
-120.98 -181.47 575.0
-117.15073 -181.7856 576.0
-105.76107 -183.048 580.0
-101.86867 -183.3636 581.0
-98.13057 -183.9948 583.0
-94.2031 -184.3104 584.0
-90.57018 -185.2572 587.0
-86.60064 -185.5728 588.0
-82.61707 -185.8884 589.0
-78.61947 -186.204 590.0
-74.73409 -186.8352 592.0
-70.93986 -187.782 595.0
-66.87914 -188.0976 596.0
-190.412 -175.17903 543.0
-182.47993 -171.30768 531.0
-178.75584 -171.30768 531.0
-175.03177 -171.30768 531.0
-170.98508 -170.98506 530.0
-167.268 -170.98506 530.0
-163.55093 -170.98506 530.0
-160.13545 -171.30768 531.0
-156.70592 -171.6303 532.0
-153.26237 -171.95291 533.0
-149.80481 -172.27551 534.0
-146.0597 -172.27551 534.0
-142.58109 -172.59813 535.0
-138.82893 -172.59813 535.0
-135.58176 -173.24335 537.0
-132.552 -174.2112 540.0
-134.72614 -182.27654 565.0
-130.99504 -182.59914 566.0
-127.47434 -183.24437 568.0
-124.14301 -184.21222 571.0
-120.559204 -184.85744 573.0
-116.74396 -185.18005 574.0
-113.30743 -186.14789 577.0
-109.26072 -186.14789 577.0
-105.39637 -186.4705 578.0
-101.518005 -186.79312 579.0
-97.79392 -187.43834 581.0
-93.88049 -187.76096 582.0
-90.10731 -188.40619 584.0
-86.30608 -189.0514 586.0
-82.47681 -189.69664 588.0
-78.48622 -190.01924 589.0
-74.73409 -190.98709 592.0
-70.82063 -191.63232 594.0
-66.87914 -192.27754 596.0
-186.55467 -175.36137 532.0
-182.13628 -174.70213 530.0
-178.08258 -174.37251 529.0
-174.04288 -174.04288 528.0
-170.33984 -174.04288 528.0
-166.95241 -174.37251 529.0
-163.24236 -174.37251 529.0
-159.53232 -174.37251 529.0
-156.1168 -174.70213 530.0
-152.68727 -175.03175 531.0
-149.24374 -175.36137 532.0
-145.51265 -175.36137 532.0
-142.04807 -175.69101 533.0
-138.56944 -176.02063 534.0
-134.82433 -176.02063 534.0
-131.8156 -177.00952 537.0
-129.00327 -178.32802 541.0
-131.45793 -187.22794 568.0
-127.47434 -187.22794 568.0
-123.70818 -187.55757 569.0
-120.138405 -188.21683 571.0
-116.54057 -188.87607 573.0
-113.111046 -189.86496 576.0
-109.07136 -189.86496 576.0
-105.21403 -190.19458 577.0
-101.167336 -190.19458 577.0
-97.28897 -190.52422 578.0
-93.71919 -191.51308 581.0
-89.953 -192.17235 583.0
-86.158806 -192.83159 585.0
-82.33653 -193.49084 587.0
-78.61947 -194.47974 590.0
-74.73409 -195.13898 592.0
-199.23479 -180.43904 536.0
-194.74623 -179.76575 534.0
-190.28577 -179.09247 532.0
-185.50267 -178.08255 529.0
-181.44896 -177.74591 528.0
-177.40929 -177.40927 527.0
-173.38364 -177.07263 526.0
-170.01723 -177.40927 527.0
-166.32121 -177.40927 527.0
-162.93376 -177.74591 528.0
-159.53232 -178.08255 529.0
-156.1168 -178.41919 530.0
-152.39973 -178.41919 530.0
-148.96321 -178.75583 531.0
-145.51265 -179.09247 532.0
-142.04807 -179.42911 533.0
-138.30994 -179.42911 533.0
-134.82433 -179.76575 534.0
-131.57014 -180.43904 536.0
-128.7648 -181.78558 540.0
-124.977615 -181.78558 540.0
-121.63925 -182.45886 542.0
-123.70818 -191.54816 569.0
-119.928 -191.88478 570.0
-116.33718 -192.55807 572.0
-112.521935 -192.8947 573.0
-108.69264 -193.23135 574.0
-104.849335 -193.568 575.0
-100.992004 -193.90463 576.0
-97.28897 -194.57791 578.0
-93.55788 -195.25119 580.0
-89.79871 -195.92447 582.0
-86.158806 -196.93439 585.0
-202.99394 -184.1982 536.0
-198.86307 -183.85454 535.0
-193.65216 -182.47993 531.0
-189.21272 -181.79262 529.0
-184.80135 -181.10532 527.0
-180.76167 -180.76166 526.0
-176.73601 -180.41801 525.0
-173.38364 -180.76166 526.0
-169.69461 -180.76166 526.0
-166.0056 -180.76166 526.0
-162.93376 -181.44897 528.0
-159.53232 -181.79262 529.0
-156.1168 -182.13629 530.0
-152.97482 -182.8236 532.0
-149.52428 -183.16724 533.0
-145.78616 -183.16724 533.0
-142.04807 -183.16724 533.0
-138.56944 -183.5109 534.0
-134.82433 -183.5109 534.0
-131.07921 -183.5109 534.0
-127.81099 -184.1982 536.0
-124.74617 -185.22916 539.0
-121.414825 -185.91647 541.0
-118.05544 -186.60378 543.0
-119.717606 -195.53877 569.0
-116.13379 -196.22607 571.0
-112.521935 -196.91338 573.0
-108.31392 -196.56972 572.0
-104.849335 -197.60068 575.0
-100.992004 -197.94434 576.0
-97.28897 -198.63164 578.0
-93.55788 -199.31894 580.0
-248.90321 -191.46402 546.0
-246.86934 -192.86667 550.0
-213.26144 -190.41202 543.0
-206.75307 -187.95734 536.0
-201.85776 -186.90533 533.0
-196.26114 -185.15201 528.0
-192.19339 -184.80135 527.0
-187.78201 -184.1 525.0
-183.74934 -183.74934 524.0
-180.07436 -183.74934 524.0
-176.39938 -183.74934 524.0
-172.72437 -183.74934 524.0
-169.37201 -184.1 525.0
-166.0056 -184.45067 526.0
-162.93376 -185.15201 528.0
-159.53232 -185.50267 529.0
-156.41136 -186.20401 531.0
-153.26237 -186.90533 533.0
-149.80481 -187.25601 534.0
-145.78616 -186.90533 533.0
-142.31458 -187.25601 534.0
-138.56944 -187.25601 534.0
-134.82433 -187.25601 534.0
-131.07921 -187.25601 534.0
-127.81099 -187.95734 536.0
-124.51473 -188.65868 538.0
-121.1904 -189.36002 540.0
-117.62061 -189.71068 541.0
-113.8264 -189.71068 541.0
-116.33718 -200.58134 572.0
-112.12918 -200.23067 571.0
-108.31392 -200.58134 572.0
-104.666985 -201.28267 574.0
-100.992004 -201.98401 576.0
-250.85292 -188.13968 526.0
-252.2696 -194.9356 545.0
-248.90321 -195.29329 546.0
-245.52278 -195.65097 547.0
-242.57018 -196.36633 549.0
-231.01921 -196.36633 549.0
-219.65761 -193.1472 540.0
-216.27016 -193.50488 541.0
-210.5122 -191.71648 536.0
-205.98161 -191.00113 534.0
-200.3429 -189.21274 529.0
-195.51772 -188.13968 526.0
-191.464 -187.782 525.0
-187.06665 -187.06665 523.0
-183.39867 -187.06665 523.0
-179.7307 -187.06665 523.0
-176.06274 -187.06665 523.0
-172.72437 -187.42433 524.0
-169.37201 -187.782 525.0
-166.0056 -188.13968 526.0
-162.93376 -188.85504 528.0
-159.53232 -189.21274 529.0
-157.00047 -190.64345 533.0
-153.83748 -191.3588 535.0
-148.68268 -189.5704 530.0
-150.98305 -197.43936 552.0
-147.64471 -198.15472 554.0
-144.0188 -198.5124 555.0
-140.37889 -198.87009 556.0
-131.07921 -191.00113 534.0
-127.81099 -191.71648 536.0
-124.51473 -192.43185 538.0
-121.1904 -193.1472 540.0
-117.403206 -193.1472 540.0
-114.036804 -193.86256 542.0
-115.930405 -203.8776 570.0
-112.12918 -204.23528 571.0
-108.50327 -204.95065 573.0
-254.54195 -191.82869 526.0
-252.28365 -192.92278 529.0
-248.57356 -192.92278 529.0
-244.86353 -192.92278 529.0
-241.60934 -193.28748 530.0
-245.07394 -199.12256 546.0
-240.80281 -198.75787 545.0
-236.11089 -198.02849 543.0
-232.30266 -198.02849 543.0
-228.07361 -197.66379 542.0
-223.44481 -196.9344 540.0
-219.25085 -196.5697 539.0
-214.27136 -195.47562 536.0
-209.33398 -194.38156 533.0
-204.43867 -193.28748 530.0
-199.96416 -192.55809 528.0
-195.14601 -191.464 525.0
-191.0993 -191.0993 524.0
-186.70897 -190.36992 522.0
-183.048 -190.36992 522.0
-179.38705 -190.36992 522.0
-176.06274 -190.73462 523.0
-172.72437 -191.0993 524.0
-169.37201 -191.464 525.0
-166.32121 -192.19339 527.0
-162.93376 -192.55809 528.0
-159.53232 -192.92278 529.0
-157.29503 -194.74625 534.0
-155.2752 -196.9344 540.0
-154.0128 -200.21664 549.0
-150.98305 -201.31071 552.0
-147.3782 -201.67542 553.0
-143.7593 -202.0401 554.0
-139.87392 -202.0401 554.0
-136.47948 -202.7695 556.0
-132.58006 -202.7695 556.0
-128.9121 -203.13419 557.0
-125.23007 -203.49889 558.0
-121.96888 -204.59297 561.0
-118.45521 -205.32236 563.0
-115.320244 -206.78111 567.0
-111.736435 -207.51051 569.0
-272.46802 -195.146 525.0
-267.7621 -194.40259 523.0
-264.0941 -194.40259 523.0
-260.92404 -194.77429 524.0
-257.24908 -194.77429 524.0
-254.05801 -195.146 525.0
-250.376 -195.146 525.0
-246.69402 -195.146 525.0
-243.47488 -195.5177 526.0
-240.6976 -196.26112 528.0
-242.82967 -201.0933 541.0
-239.03545 -201.0933 541.0
-235.24123 -201.0933 541.0
-231.01921 -200.7216 540.0
-226.39041 -199.9782 538.0
-222.20345 -199.60648 537.0
-217.62375 -198.86307 535.0
-213.47183 -198.49135 534.0
-208.54848 -197.37624 531.0
-204.05295 -196.63283 529.0
-199.58545 -195.8894 527.0
-195.14601 -195.146 525.0
-190.7346 -194.40259 523.0
-186.70897 -194.03088 522.0
-183.048 -194.03088 522.0
-179.38705 -194.03088 522.0
-176.06274 -194.40259 523.0
-172.72437 -194.77429 524.0
-169.69461 -195.5177 526.0
-166.63681 -196.26112 528.0
-163.24236 -196.63283 529.0
-159.83388 -197.00453 530.0
-160.82976 -202.95183 546.0
-157.28802 -203.32355 547.0
-154.0128 -204.06696 549.0
-150.436 -204.43867 550.0
-146.84518 -204.81038 551.0
-143.4998 -205.55379 553.0
-139.62144 -205.55379 553.0
-135.74307 -205.55379 553.0
-132.10316 -205.92549 554.0
-128.44922 -206.2972 555.0
-125.00565 -207.04062 557.0
-121.75147 -208.15573 560.0
-118.244804 -208.89914 562.0
-114.91347 -210.01427 565.0
-270.91104 -197.69183 522.0
-266.73813 -197.31311 521.0
-263.08417 -197.31311 521.0
-259.4302 -197.31311 521.0
-255.77628 -197.31311 521.0
-252.12234 -197.31311 521.0
-248.46838 -197.31311 521.0
-245.28432 -197.69183 522.0
-241.16048 -197.31311 521.0
-237.50655 -197.31311 521.0
-241.4831 -203.75136 538.0
-238.15178 -204.13007 539.0
-233.93675 -203.75136 538.0
-229.30794 -202.99391 536.0
-225.128 -202.6152 535.0
-220.9621 -202.23647 534.0
-217.21698 -202.23647 534.0
-213.07208 -201.85776 533.0
-208.15575 -200.7216 530.0
-204.05295 -200.34286 529.0
-199.20674 -199.20671 526.0
-195.14601 -198.828 525.0
-190.7346 -198.07056 523.0
-186.70897 -197.69183 522.0
-183.048 -197.69183 522.0
-179.7307 -198.07056 523.0
-176.06274 -198.07056 523.0
-173.054 -198.828 525.0
-169.69461 -199.20671 526.0
-166.95241 -200.34286 529.0
-163.55093 -200.7216 530.0
-164.05591 -206.02367 544.0
-160.5352 -206.4024 545.0
-157.00047 -206.78111 546.0
-153.45174 -207.15984 547.0
-149.88896 -207.53856 548.0
-146.57867 -208.296 550.0
-142.98083 -208.67471 551.0
-139.11649 -208.67471 551.0
-135.25214 -208.67471 551.0
-131.62625 -209.05344 552.0
-128.21777 -209.81087 554.0
-124.332375 -209.81087 554.0
-121.31664 -211.32576 558.0
-117.824005 -212.0832 560.0
-91.138275 -213.9768 565.0
-282.27264 -199.03839 516.0
-279.73383 -199.80986 518.0
-276.6339 -200.19559 519.0
-272.46802 -199.80986 518.0
-268.31613 -199.42413 517.0
-265.2022 -199.80986 518.0
-261.56927 -199.80986 518.0
-257.43845 -199.42413 517.0
-252.33974 -198.26692 514.0
-248.7349 -198.26692 514.0
-245.13005 -198.26692 514.0
-241.52516 -198.26692 514.0
-239.30896 -199.42413 517.0
-235.68307 -199.42413 517.0
-239.6877 -205.98158 534.0
-236.38441 -206.36732 535.0
-232.19743 -205.98158 534.0
-228.02452 -205.59586 533.0
-224.70721 -205.98158 534.0
-220.5483 -205.59586 533.0
-216.40343 -205.21013 532.0
-211.8728 -204.43866 530.0
-207.76299 -204.05293 529.0
-203.6672 -203.66719 528.0
-199.20674 -202.89574 526.0
-195.14601 -202.51 525.0
-190.7346 -201.73853 523.0
-187.06665 -201.73853 523.0
-183.39867 -201.73853 523.0
-179.7307 -201.73853 523.0
-176.39938 -202.12425 524.0
-173.054 -202.51 525.0
-170.33984 -203.66719 528.0
-166.95241 -204.05293 529.0
-166.01962 -207.52454 538.0
-163.75433 -209.45319 543.0
-159.94608 -209.45319 543.0
-156.42538 -209.83893 544.0
-153.1712 -210.61038 546.0
-149.61545 -210.99612 547.0
-146.04567 -211.38185 548.0
-142.46184 -211.7676 549.0
-138.61151 -211.7676 549.0
-135.00667 -212.15334 550.0
-131.38779 -212.53906 551.0
-127.75489 -212.92479 552.0
-124.332375 -213.69626 554.0
-120.664406 -214.08199 555.0
-116.98241 -214.46773 556.0
-113.08299 -214.46773 556.0
-109.37996 -214.85345 557.0
-105.66287 -215.23918 558.0
-101.931786 -215.62492 559.0
-98.18667 -216.01067 560.0
-94.2592 -216.01067 560.0
-90.49305 -216.3964 561.0
-86.40426 -216.01067 560.0
-82.624084 -216.3964 561.0
-281.1786 -201.87178 514.0
-277.5737 -201.87178 514.0
-275.5679 -203.05 517.0
-271.94202 -203.05 517.0
-267.79715 -202.65727 516.0
-263.15433 -201.87178 514.0
-258.03458 -200.69354 511.0
-254.45074 -200.69354 511.0
-250.86694 -200.69354 511.0
-248.25096 -201.47902 513.0
-244.65314 -201.47902 513.0
-241.05528 -201.47902 513.0
-238.84608 -202.65727 516.0
-235.68307 -203.05 517.0
-238.78998 -208.94121 532.0
-235.0589 -208.94121 532.0
-231.76262 -209.33397 533.0
-228.02452 -209.33397 533.0
-223.44481 -208.54848 531.0
-219.30695 -208.15572 530.0
-215.58987 -208.15572 530.0
-211.47304 -207.76297 529.0
-207.76299 -207.76297 529.0
-203.28148 -206.97748 527.0
-199.20674 -206.58475 526.0
-195.14601 -206.19199 525.0
-191.0993 -205.79924 524.0
-187.06665 -205.4065 523.0
-183.39867 -205.4065 523.0
-180.07436 -205.79924 524.0
-176.73601 -206.19199 525.0
-173.71326 -206.97748 527.0
-170.98508 -208.15572 530.0
-168.84601 -210.11946 535.0
-166.63681 -212.08319 540.0
-163.45276 -212.86868 542.0
-159.94608 -213.26143 543.0
-156.13785 -213.26143 543.0
-152.89067 -214.04692 545.0
-149.34193 -214.43967 546.0
-145.77916 -214.83241 547.0
-141.94286 -214.83241 547.0
-138.35904 -215.22516 548.0
-134.51573 -215.22516 548.0
-130.91089 -215.6179 549.0
-127.292015 -216.01067 550.0
-123.883514 -216.79614 552.0
-120.44698 -217.58165 554.0
-116.56161 -217.58165 554.0
-112.67622 -217.58165 554.0
-108.79083 -217.58165 554.0
-105.28416 -218.36713 556.0
-101.2024 -217.97438 555.0
-97.48534 -218.36713 556.0
-93.75425 -218.75989 557.0
-90.00913 -219.15263 558.0
-86.24997 -219.54536 559.0
-82.32951 -219.54536 559.0
-78.689606 -220.33087 561.0
-74.75513 -220.33087 561.0
-71.07313 -221.11635 563.0
-67.243835 -221.50911 564.0
-63.28832 -221.50911 564.0
-278.99042 -203.87761 510.0
-275.4136 -203.87761 510.0
-270.77078 -203.0781 508.0
-266.682 -202.67833 507.0
-263.12625 -202.67833 507.0
-260.08246 -203.0781 508.0
-256.51968 -203.0781 508.0
-252.95692 -203.0781 508.0
-249.39415 -203.0781 508.0
-246.79921 -203.87761 510.0
-243.69933 -204.27736 511.0
-240.1155 -204.27736 511.0
-237.92032 -205.47665 514.0
-234.77135 -205.87642 515.0
-238.34114 -212.27257 531.0
-234.61705 -212.27257 531.0
-230.89296 -212.27257 531.0
-227.16888 -212.27257 531.0
-223.024 -211.87282 530.0
-219.30695 -211.87282 530.0
-215.18312 -211.47305 529.0
-211.47304 -211.47305 529.0
-207.37025 -211.0733 528.0
-203.28148 -210.67352 527.0
-199.20674 -210.27376 526.0
-195.14601 -209.87401 525.0
-191.0993 -209.47424 524.0
-187.78201 -209.87401 525.0
-184.1 -209.87401 525.0
-180.418 -209.87401 525.0
-177.40929 -210.67352 527.0
-175.36139 -212.67233 532.0
-173.24336 -214.67113 537.0
-170.42401 -215.8704 540.0
-166.63681 -215.8704 540.0
-162.84961 -215.8704 540.0
-159.35696 -216.27017 541.0
-156.13785 -217.0697 543.0
-152.3296 -217.0697 543.0
-148.79489 -217.46947 544.0
-145.24614 -217.8692 545.0
-141.68336 -218.26897 546.0
-138.10657 -218.66873 547.0
-134.27028 -218.66873 547.0
-130.67244 -219.0685 548.0
-127.06057 -219.46826 549.0
-123.659096 -220.26776 551.0
-120.44698 -221.46706 554.0
-116.56161 -221.46706 554.0
-112.67622 -221.46706 554.0
-108.79083 -221.46706 554.0
-104.90544 -221.46706 554.0
-101.02005 -221.46706 554.0
-97.13467 -221.46706 554.0
-93.4176 -221.8668 555.0
-89.847824 -222.66634 557.0
-85.94138 -222.66634 557.0
-82.182236 -223.0661 558.0
-78.26881 -223.0661 558.0
-74.488625 -223.46587 559.0
-70.69441 -223.8656 560.0
-66.886154 -224.26537 561.0
-63.28832 -225.46466 564.0
-276.80225 -205.82732 506.0
-272.71347 -205.42055 505.0
-269.17175 -205.42055 505.0
-265.63 -205.42055 505.0
-262.0883 -205.42055 505.0
-259.05853 -205.82732 506.0
-255.50977 -205.82732 506.0
-252.45897 -206.23409 507.0
-248.90321 -206.23409 507.0
-245.83136 -206.64085 508.0
-243.22241 -207.4544 510.0
-240.1155 -207.86118 511.0
-236.53168 -207.86118 511.0
-234.31548 -209.0815 514.0
-237.44344 -215.18309 529.0
-233.73338 -215.18309 529.0
-230.0233 -215.18309 529.0
-226.31325 -215.18309 529.0
-222.60321 -215.18309 529.0
-218.89316 -215.18309 529.0
-215.18312 -215.18309 529.0
-211.47304 -215.18309 529.0
-207.37025 -214.77634 528.0
-203.28148 -214.36955 527.0
-199.58545 -214.36955 527.0
-195.51772 -213.96278 526.0
-191.82869 -213.96278 526.0
-188.13968 -213.96278 526.0
-184.80135 -214.36955 527.0
-181.79263 -215.18309 529.0
-179.76578 -217.21696 534.0
-177.00952 -218.4373 537.0
-173.88858 -219.25082 539.0
-170.42401 -219.6576 540.0
-166.63681 -219.6576 540.0
-162.84961 -219.6576 540.0
-159.06241 -219.6576 540.0
-155.56274 -220.06438 541.0
-152.04907 -220.47116 542.0
-148.52136 -220.87793 543.0
-144.97964 -221.28471 544.0
-141.16437 -221.28471 544.0
-138.10657 -222.505 547.0
-134.27028 -222.505 547.0
-130.43398 -222.505 547.0
-127.06057 -223.31856 549.0
-123.659096 -224.13213 551.0
-120.229576 -224.94568 553.0
-116.56161 -225.35242 554.0
-112.67622 -225.35242 554.0
-108.59447 -224.94568 553.0
-104.71607 -224.94568 553.0
-101.02005 -225.35242 554.0
-97.13467 -225.35242 554.0
-93.24929 -225.35242 554.0
-89.686516 -226.16597 556.0
-85.94138 -226.57275 557.0
-82.03496 -226.57275 557.0
-78.12853 -226.57275 557.0
-74.35537 -226.97954 558.0
-70.56817 -227.3863 559.0
-66.886154 -228.19983 561.0
-63.176105 -229.01338 563.0
-274.06705 -207.30711 501.0
-271.09338 -207.7209 502.0
-267.5727 -207.7209 502.0
-264.052 -207.7209 502.0
-261.5693 -208.54848 504.0
-258.03458 -208.54848 504.0
-255.0048 -208.96227 505.0
-251.96101 -209.37605 506.0
-248.90321 -209.78984 507.0
-245.34746 -209.78984 507.0
-241.31479 -209.37605 506.0
-238.70581 -210.20364 508.0
-235.60593 -210.61742 509.0
-232.94788 -211.44499 511.0
-236.54572 -218.06558 527.0
-233.29153 -218.47937 528.0
-229.15366 -218.06558 527.0
-225.45763 -218.06558 527.0
-221.76161 -218.06558 527.0
-218.47937 -218.47937 528.0
-215.18312 -218.89316 529.0
-211.47304 -218.89316 529.0
-207.76299 -218.89316 529.0
-203.6672 -218.47937 528.0
-199.96416 -218.47937 528.0
-196.26114 -218.47937 528.0
-192.19339 -218.06558 527.0
-189.21272 -218.89316 529.0
-185.85333 -219.30695 530.0
-183.16724 -220.54831 533.0
-180.43906 -221.78964 536.0
-177.00952 -222.20343 537.0
-173.24336 -222.20343 537.0
-169.7928 -222.61722 538.0
-166.63681 -223.4448 540.0
-162.54805 -223.031 539.0
-158.76784 -223.031 539.0
-155.2752 -223.4448 540.0
-151.76854 -223.85858 541.0
-148.24785 -224.27237 542.0
-144.71313 -224.68617 543.0
-141.16437 -225.09996 544.0
-138.35904 -226.75511 548.0
-134.51573 -226.75511 548.0
-130.67244 -226.75511 548.0
-127.292015 -227.58266 550.0
-123.659096 -227.99644 551.0
-120.01216 -228.41023 552.0
-116.1408 -228.41023 552.0
-112.67622 -229.23781 554.0
-108.79083 -229.23781 554.0
-104.90544 -229.23781 554.0
-101.02005 -229.23781 554.0
-97.13467 -229.23781 554.0
-93.24929 -229.23781 554.0
-89.686516 -230.06538 556.0
-85.94138 -230.47917 557.0
-82.03496 -230.47917 557.0
-78.12853 -230.47917 557.0
-74.35537 -230.89296 558.0
-70.82065 -232.13432 561.0
-67.12461 -232.96191 563.0
-63.176105 -232.96191 563.0

