ply
format ascii 1.0
comment made by @arthurmuchir
element vertex 880
property float x
property float y
property float z
end_header
-79.6855 -121.62524 598.0
-75.49153 -121.62524 598.0
-71.535995 -122.032 600.0
-83.318405 -124.9776 594.0
-79.41899 -125.3984 596.0
-75.36529 -125.6088 597.0
-71.41676 -126.0296 599.0
-91.49594 -128.9261 593.0
-87.337036 -128.9261 593.0
-83.17814 -128.9261 593.0
-79.15249 -129.14352 594.0
-75.23905 -129.57834 596.0
-71.41676 -130.23059 599.0
-99.47713 -132.63615 591.0
-95.49356 -132.86058 592.0
-91.187355 -132.63615 591.0
-87.18976 -132.86058 592.0
-83.17814 -133.085 593.0
-79.15249 -133.30943 594.0
-75.23905 -133.75829 596.0
-103.096 -136.0867 588.0
-99.14049 -136.31815 589.0
-95.009636 -136.31815 589.0
-90.87877 -136.31815 589.0
-87.04248 -136.78102 591.0
-83.03787 -137.01247 592.0
-79.15249 -137.47536 594.0
-111.34367 -140.21057 588.0
-107.03749 -139.97212 587.0
-102.74534 -139.73367 586.0
-98.63553 -139.73367 586.0
-94.68703 -139.97212 587.0
-90.72447 -140.21057 588.0
-86.8952 -140.68748 590.0
-83.17814 -141.40283 593.0
-114.87841 -143.598 585.0
-110.7756 -143.598 585.0
-106.672806 -143.598 585.0
-102.57001 -143.598 585.0
-98.4672 -143.598 585.0
-94.68703 -144.08894 587.0
-90.72447 -144.33441 588.0
-86.8952 -144.82535 590.0
-114.28929 -146.94336 582.0
-110.20752 -146.94336 582.0
-106.49045 -147.44833 584.0
-102.39467 -147.44833 584.0
-98.4672 -147.7008 585.0
-94.68703 -148.20576 587.0
-90.72447 -148.45825 588.0
-77.00641 -154.0128 610.0
-72.84748 -154.26529 611.0
-68.450134 -154.0128 610.0
-146.61374 -146.61372 565.0
-140.63136 -144.5378 557.0
-136.23401 -144.0188 555.0
-132.10316 -143.75931 554.0
-127.523445 -142.98082 551.0
-123.43466 -142.72133 550.0
-120.01216 -143.24031 552.0
-118.167656 -150.76562 581.0
-113.896545 -150.50613 580.0
-109.8288 -150.50613 580.0
-106.12576 -151.02512 582.0
-102.39467 -151.54411 584.0
-98.4672 -151.8036 585.0
-94.68703 -152.32259 587.0
-81.28454 -158.29092 610.0
-77.00641 -158.29092 610.0
-72.96671 -158.80992 612.0
-68.78677 -159.06941 613.0
-64.592804 -159.3289 614.0
-167.60463 -151.64229 569.0
-163.32652 -151.3758 568.0
-158.78188 -150.84277 566.0
-154.5388 -150.57628 565.0
-149.24374 -149.24373 560.0
-144.53778 -148.44421 557.0
-139.87392 -147.6447 554.0
-135.74307 -147.37819 553.0
-131.38779 -146.84518 551.0
-124.74617 -143.6471 539.0
-122.31253 -145.24612 545.0
-117.760895 -154.30736 579.0
-113.70017 -154.30736 579.0
-109.8288 -154.57387 580.0
-106.12576 -155.10689 582.0
-102.57001 -155.9064 585.0
-98.63553 -156.17291 586.0
-85.0016 -161.50304 606.0
-80.88478 -161.76955 607.0
-76.880165 -162.30255 609.0
-72.728264 -162.56908 610.0
-68.56234 -162.83557 611.0
-170.69052 -154.81232 566.0
-166.4264 -154.5388 565.0
-162.17632 -154.26527 564.0
-157.65974 -153.71823 562.0
-153.71825 -153.71823 562.0
-148.71074 -152.62415 558.0
-144.0188 -151.8036 555.0
-139.62144 -151.25655 553.0
-135.25214 -150.70952 551.0
-129.00327 -147.97432 541.0
-124.51473 -147.15375 538.0
-120.96597 -147.42728 539.0
-117.760895 -158.36807 579.0
-113.5038 -158.09456 578.0
-109.8288 -158.6416 580.0
-106.12576 -159.18863 582.0
-102.57001 -160.0092 585.0
-92.576 -164.112 600.0
-88.51528 -164.38551 601.0
-84.72107 -165.20607 604.0
-80.48502 -165.20607 604.0
-76.62769 -166.02664 607.0
-72.60904 -166.57367 609.0
-68.56234 -167.12071 611.0
-180.98607 -157.37918 561.0
-177.3672 -157.65973 562.0
-173.42572 -157.65973 562.0
-169.7858 -157.94026 563.0
-165.54272 -157.65973 562.0
-161.31367 -157.37918 561.0
-157.37921 -157.37918 561.0
-153.1712 -157.09866 560.0
-148.97725 -156.81813 559.0
-143.7593 -155.41545 554.0
-139.87392 -155.41545 554.0
-135.25214 -154.57385 551.0
-128.2879 -150.92693 538.0
-122.894646 -148.96318 531.0
-120.292694 -150.36586 536.0
-117.18578 -151.20746 539.0
-117.760895 -162.42879 579.0
-113.896545 -162.70934 580.0
-110.01815 -162.98985 581.0
-106.12576 -163.27039 582.0
-100.318726 -167.19786 596.0
-96.13879 -167.19786 596.0
-92.2674 -167.75893 598.0
-88.22072 -168.03946 599.0
-84.16 -168.31999 600.0
-80.35177 -169.16159 603.0
-76.50146 -170.00319 606.0
-72.48981 -170.56425 608.0
-181.3087 -161.60121 562.0
-177.0516 -161.31367 561.0
-167.25398 -155.85028 542.0
-164.05591 -156.42537 544.0
-160.82976 -157.00047 546.0
-156.71294 -156.71292 545.0
-152.61014 -156.42537 544.0
-148.79489 -156.42537 544.0
-145.51265 -157.00047 546.0
-142.20235 -157.57556 548.0
-138.864 -158.15067 550.0
-135.25214 -158.4382 551.0
-124.23419 -149.8118 521.0
-120.81169 -150.09935 522.0
-117.824 -150.96199 525.0
-117.760895 -166.4895 579.0
-113.896545 -166.77705 580.0
-103.79734 -170.22762 592.0
-99.81377 -170.51517 593.0
-95.81617 -170.8027 594.0
-91.95882 -171.37779 596.0
-87.92616 -171.66536 597.0
-84.16 -172.52798 600.0
-80.21851 -173.10309 602.0
-76.24897 -173.67818 604.0
-178.32803 -159.35696 541.0
-174.53381 -159.35696 541.0
-170.42401 -159.06241 540.0
-166.63681 -159.06241 540.0
-162.84961 -159.06241 540.0
-159.06241 -159.06241 540.0
-155.8503 -159.65154 542.0
-152.04907 -159.65154 542.0
-148.52136 -159.94609 543.0
-144.97964 -160.24065 544.0
-141.68336 -160.82976 546.0
-137.85408 -160.82976 546.0
-134.02481 -160.82976 546.0
-123.75729 -152.87665 519.0
-120.11737 -152.87665 519.0
-116.92629 -153.46576 521.0
-111.34367 -173.2013 588.0
-107.03749 -172.90672 587.0
-103.096 -173.2013 588.0
-99.30881 -173.79042 590.0
-95.49356 -174.37953 592.0
-91.80453 -175.26321 595.0
-87.92616 -175.85233 597.0
-84.01974 -176.44145 599.0
-80.08526 -177.03058 601.0
-181.44897 -162.54803 539.0
-177.66876 -162.54803 539.0
-173.56598 -162.24646 538.0
-169.4772 -161.94489 537.0
-166.01962 -162.24646 538.0
-162.24648 -162.24646 538.0
-158.76784 -162.54803 539.0
-155.2752 -162.84961 540.0
-151.488 -162.84961 540.0
-147.97433 -163.15118 541.0
-144.44662 -163.45276 542.0
-140.3859 -163.15118 541.0
-137.09663 -163.75433 543.0
-134.02481 -164.65904 546.0
-122.565025 -155.0087 514.0
-118.96017 -155.0087 514.0
-115.57973 -155.31027 515.0
-118.9812 -176.42041 585.0
-114.87841 -176.42041 585.0
-110.96495 -176.72197 586.0
-106.85515 -176.72197 586.0
-102.92067 -177.02356 587.0
-99.14049 -177.62671 589.0
-95.49356 -178.53142 592.0
-91.80453 -179.43614 595.0
-87.92616 -180.03928 597.0
-184.1982 -165.40247 536.0
-180.43906 -165.40247 536.0
-176.35027 -165.09387 535.0
-172.27551 -164.78528 534.0
-168.84601 -165.09387 535.0
-165.40247 -165.40247 536.0
-161.94489 -165.71104 537.0
-158.47328 -166.01964 538.0
-154.98766 -166.32822 539.0
-151.488 -166.6368 540.0
-147.7008 -166.6368 540.0
-143.9136 -166.6368 540.0
-140.3859 -166.94539 541.0
-136.59169 -166.94539 541.0
-133.53387 -167.87115 544.0
-122.565025 -158.61356 514.0
-118.96017 -158.61356 514.0
-115.35531 -158.61356 514.0
-111.75045 -158.61356 514.0
-118.37105 -179.59744 582.0
-114.485664 -179.90604 583.0
-110.39687 -179.90604 583.0
-106.49045 -180.21461 584.0
-102.74534 -180.83179 586.0
-98.97217 -181.44896 588.0
-95.49356 -182.6833 592.0
-91.49594 -182.9919 593.0
-187.60667 -168.846 535.0
-183.5109 -168.5304 534.0
-179.42914 -168.2148 533.0
-175.69101 -168.2148 533.0
-172.27551 -168.5304 534.0
-168.53041 -168.5304 534.0
-165.09387 -168.846 535.0
-161.94489 -169.4772 537.0
-158.47328 -169.7928 538.0
-154.98766 -170.1084 539.0
-151.488 -170.424 540.0
-147.7008 -170.424 540.0
-143.9136 -170.424 540.0
-140.3859 -170.7396 541.0
-136.84416 -171.0552 542.0
-133.04294 -171.0552 542.0
-122.565025 -162.2184 514.0
-118.72874 -161.9028 513.0
-115.130875 -161.9028 513.0
-118.925095 -172.6332 547.0
-115.509605 -173.2644 549.0
-118.167656 -183.3636 581.0
-114.092926 -183.3636 581.0
-110.01815 -183.3636 581.0
-106.49045 -184.3104 584.0
-102.57001 -184.626 585.0
-98.97217 -185.5728 588.0
-95.49356 -186.8352 592.0
-191.35881 -172.59813 535.0
-187.25601 -172.27551 534.0
-182.13628 -170.98506 530.0
-178.75584 -171.30768 531.0
-175.36139 -171.6303 532.0
-171.95291 -171.95291 533.0
-168.21481 -171.95291 533.0
-164.7853 -172.27551 534.0
-161.64331 -172.92075 536.0
-158.17873 -173.24335 537.0
-154.98766 -173.8886 539.0
-151.76854 -174.53381 541.0
-147.97433 -174.53381 541.0
-144.18011 -174.53381 541.0
-140.3859 -174.53381 541.0
-137.09663 -175.17903 543.0
-133.2884 -175.17903 543.0
-129.48016 -175.17903 543.0
-125.903366 -175.50165 544.0
-122.31253 -175.82426 545.0
-118.70768 -176.14688 546.0
-115.509605 -177.11472 549.0
-117.96427 -187.11572 580.0
-113.896545 -187.11572 580.0
-109.8288 -187.11572 580.0
-106.308105 -188.08356 583.0
-102.57001 -188.7288 585.0
-199.97821 -177.33914 538.0
-195.47563 -176.67989 536.0
-190.28577 -175.36137 532.0
-185.50267 -174.37251 529.0
-181.79263 -174.37251 529.0
-178.08258 -174.37251 529.0
-174.3725 -174.37251 529.0
-171.30768 -175.03175 531.0
-168.21481 -175.69101 533.0
-164.4767 -175.69101 533.0
-161.04018 -176.02063 534.0
-158.17873 -177.00952 537.0
-155.2752 -177.99838 540.0
-152.3296 -178.98727 543.0
-148.79489 -179.3169 544.0
-149.51025 -184.92055 561.0
-145.83525 -185.25018 562.0
-136.84416 -178.65765 542.0
-133.2884 -178.98727 543.0
-129.71863 -179.3169 544.0
-125.903366 -179.3169 544.0
-122.31253 -179.64653 545.0
-118.70768 -179.97615 546.0
-115.088806 -180.30577 547.0
-117.35411 -190.19458 577.0
-113.70017 -190.85384 579.0
-109.8288 -191.18346 580.0
-198.86307 -180.10239 535.0
-193.28748 -178.41919 530.0
-189.21272 -178.08255 529.0
-184.80135 -177.40927 527.0
-181.10532 -177.40927 527.0
-177.40929 -177.40927 527.0
-174.04288 -177.74591 528.0
-170.98508 -178.41919 530.0
-167.8992 -179.09247 532.0
-164.4767 -179.42911 533.0
-161.34174 -180.10239 535.0
-158.17873 -180.77567 537.0
-155.56274 -182.12224 541.0
-152.61014 -183.13216 544.0
-152.62416 -187.84511 558.0
-149.51025 -188.85504 561.0
-146.09474 -189.5283 563.0
-142.39871 -189.86496 564.0
-138.68867 -190.20158 565.0
-130.19553 -183.80544 546.0
-126.36625 -183.80544 546.0
-127.923195 -191.88478 570.0
-118.925095 -184.14207 547.0
-120.559204 -192.8947 573.0
-117.15073 -193.90463 576.0
-113.5038 -194.57791 578.0
-206.36734 -183.85454 535.0
-201.47905 -182.8236 532.0
-197.00455 -182.13629 530.0
-192.92276 -181.79262 529.0
-188.49736 -181.10532 527.0
-184.80135 -181.10532 527.0
-180.76167 -180.76166 526.0
-177.07265 -180.76166 526.0
-173.71326 -181.10532 527.0
-170.66246 -181.79262 529.0
-167.5836 -182.47993 531.0
-164.4767 -183.16724 533.0
-161.34174 -183.85454 535.0
-158.47328 -184.88551 538.0
-156.13785 -186.60378 543.0
-156.25706 -191.41492 557.0
-152.89769 -192.10222 559.0
-149.51025 -192.78954 561.0
-145.83525 -193.1332 562.0
-142.39871 -193.8205 564.0
-138.68867 -194.16414 565.0
-134.72614 -194.16414 565.0
-130.99504 -194.5078 566.0
-127.47434 -195.19511 568.0
-123.925606 -195.88242 570.0
-120.138405 -196.22607 571.0
-116.947334 -197.60068 575.0
-210.5122 -187.95734 536.0
-205.98161 -187.25601 534.0
-201.10034 -186.20401 531.0
-196.63284 -185.50267 529.0
-192.19339 -184.80135 527.0
-188.13968 -184.45067 526.0
-184.45067 -184.45067 526.0
-180.418 -184.1 525.0
-177.07265 -184.45067 526.0
-173.71326 -184.80135 527.0
-170.66246 -185.50267 529.0
-167.5836 -186.20401 531.0
-164.4767 -186.90533 533.0
-161.94489 -188.30801 537.0
-159.06241 -189.36002 540.0
-156.13785 -190.41202 543.0
-155.97653 -194.97067 556.0
-152.62416 -195.67201 558.0
-148.97725 -196.02267 559.0
-145.31627 -196.37334 560.0
-141.64128 -196.72401 561.0
-138.4432 -197.77602 564.0
-134.48769 -197.77602 564.0
-130.76361 -198.12668 565.0
-126.80106 -198.12668 565.0
-123.490776 -199.17867 568.0
-119.717606 -199.52934 569.0
-115.72703 -199.52934 569.0
-78.61947 -206.89334 590.0
-254.05801 -187.782 525.0
-246.25217 -190.28577 532.0
-242.06522 -189.92809 531.0
-240.5854 -191.71648 536.0
-240.80281 -194.9356 545.0
-219.65761 -193.1472 540.0
-215.47063 -192.78954 539.0
-209.72672 -191.00113 534.0
-205.59587 -190.64345 533.0
-200.3429 -189.21274 529.0
-195.88943 -188.49736 527.0
-191.82869 -188.13968 526.0
-187.78201 -187.782 525.0
-184.1 -187.782 525.0
-180.418 -187.782 525.0
-176.73601 -187.782 525.0
-173.71326 -188.49736 527.0
-170.66246 -189.21274 529.0
-167.5836 -189.92809 531.0
-164.7853 -191.00113 534.0
-161.94489 -192.07416 537.0
-159.35696 -193.50488 541.0
-159.01332 -197.79704 553.0
-155.41547 -198.15472 554.0
-152.35065 -199.22777 557.0
-148.44423 -199.22777 557.0
-144.79727 -199.58545 558.0
-141.13632 -199.94313 559.0
-137.21587 -199.94313 559.0
-133.53387 -200.3008 560.0
-130.06929 -201.01616 562.0
-126.35221 -201.37384 563.0
-123.05595 -202.44688 566.0
-119.5072 -203.16225 568.0
-115.72703 -203.51993 569.0
-112.12918 -204.23528 571.0
-104.666985 -205.30833 574.0
-100.992004 -206.02368 576.0
-97.12064 -206.38136 577.0
-93.07396 -206.38136 577.0
-89.79871 -208.16977 582.0
-86.01151 -208.88513 584.0
-82.056 -209.2428 585.0
-78.35297 -210.31584 588.0
-74.22913 -210.31584 588.0
-70.34373 -211.0312 590.0
-255.77628 -190.00522 521.0
-254.05801 -191.464 525.0
-250.85292 -191.82869 526.0
-246.69402 -191.464 525.0
-243.01201 -191.464 525.0
-241.15347 -192.92278 529.0
-238.34114 -193.65216 531.0
-238.59361 -196.9344 540.0
-234.80641 -196.9344 540.0
-231.01921 -196.9344 540.0
-227.6528 -197.29909 541.0
-223.03102 -196.5697 539.0
-218.4373 -195.84032 537.0
-213.47183 -194.74625 534.0
-208.94124 -194.01686 532.0
-204.43867 -193.28748 530.0
-200.3429 -192.92278 529.0
-195.88943 -192.19339 527.0
-191.464 -191.464 525.0
-187.78201 -191.464 525.0
-183.74934 -191.0993 524.0
-180.418 -191.464 525.0
-177.07265 -191.82869 526.0
-173.71326 -192.19339 527.0
-170.66246 -192.92278 529.0
-168.21481 -194.38156 533.0
-165.40247 -195.47562 536.0
-163.45276 -197.66379 542.0
-161.41887 -199.85196 548.0
-159.01332 -201.67542 553.0
-155.41547 -202.0401 554.0
-151.53009 -202.0401 554.0
-147.64471 -202.0401 554.0
-144.27829 -202.7695 556.0
-140.63136 -203.13419 557.0
-136.72495 -203.13419 557.0
-133.05698 -203.49889 558.0
-129.60641 -204.22827 560.0
-126.127785 -204.95766 562.0
-122.62112 -205.68704 564.0
-119.0864 -206.41643 566.0
-115.523636 -207.14581 568.0
-111.736435 -207.51051 569.0
-108.31392 -208.60458 572.0
-104.48464 -208.96928 573.0
-100.641335 -209.33398 574.0
-96.952324 -210.06337 576.0
-93.07396 -210.42805 577.0
-89.49013 -211.52213 580.0
-85.71696 -212.25151 582.0
-81.91573 -212.98091 584.0
-77.9532 -213.3456 585.0
-73.976654 -213.7103 586.0
-70.2245 -214.80438 589.0
-66.205864 -215.16907 590.0
-266.73813 -193.65918 521.0
-263.08417 -193.65918 521.0
-259.4302 -193.65918 521.0
-256.75815 -194.40259 523.0
-253.09016 -194.40259 523.0
-248.9453 -194.03088 522.0
-245.75421 -194.40259 523.0
-242.08626 -194.40259 523.0
-239.33 -195.146 525.0
-237.44344 -196.63283 529.0
-237.70995 -199.9782 538.0
-233.93675 -199.9782 538.0
-229.73576 -199.60648 537.0
-225.128 -198.86307 535.0
-220.9621 -198.49135 534.0
-217.21698 -198.49135 534.0
-213.07208 -198.11964 533.0
-208.54848 -197.37624 531.0
-204.05295 -196.63283 529.0
-199.96416 -196.26112 528.0
-195.51772 -195.5177 526.0
-191.464 -195.146 525.0
-187.42432 -194.77429 524.0
-184.1 -195.146 525.0
-180.418 -195.146 525.0
-177.07265 -195.5177 526.0
-174.04288 -196.26112 528.0
-170.98508 -197.00453 530.0
-168.53041 -198.49135 534.0
-166.63681 -200.7216 540.0
-164.35747 -202.58012 545.0
-161.12431 -203.32355 547.0
-158.15067 -204.43867 550.0
-154.8544 -205.18208 552.0
-151.25656 -205.55379 553.0
-147.64471 -205.92549 554.0
-143.7593 -205.92549 554.0
-139.87392 -205.92549 554.0
-135.98854 -205.92549 554.0
-132.3416 -206.2972 555.0
-129.14354 -207.41232 558.0
-125.67893 -208.15573 560.0
-122.40371 -209.27084 563.0
-118.87601 -210.01427 565.0
-115.11686 -210.38597 566.0
-111.54007 -211.1294 568.0
-107.55647 -211.1294 568.0
-103.75525 -211.5011 569.0
-100.29067 -212.61621 572.0
-96.44737 -212.98792 573.0
-92.91264 -214.10304 576.0
-89.02725 -214.47475 577.0
-85.4224 -215.58986 580.0
-81.494934 -215.96158 581.0
-77.6867 -216.70499 583.0
-73.85041 -217.4484 585.0
-70.10528 -218.56354 588.0
-66.205864 -219.30695 590.0
-280.27383 -196.55566 519.0
-270.91104 -197.69183 522.0
-265.71417 -196.55566 519.0
-262.07425 -196.55566 519.0
-258.43433 -196.55566 519.0
-254.7944 -196.55566 519.0
-251.1545 -196.55566 519.0
-247.99147 -196.9344 520.0
-242.93486 -195.79823 517.0
-239.30896 -195.79823 517.0
-237.50655 -197.31311 521.0
-240.13654 -202.6152 535.0
-236.82625 -202.99391 536.0
-232.63228 -202.6152 535.0
-228.45232 -202.23647 534.0
-224.70721 -202.23647 534.0
-220.5483 -201.85776 533.0
-216.40343 -201.47903 532.0
-212.67232 -201.47903 532.0
-208.15575 -200.7216 530.0
-204.05295 -200.34286 529.0
-199.58545 -199.58543 527.0
-195.51772 -199.20671 526.0
-191.464 -198.828 525.0
-187.78201 -198.828 525.0
-184.1 -198.828 525.0
-180.418 -198.828 525.0
-177.40929 -199.58543 527.0
-174.3725 -200.34286 529.0
-171.30768 -201.10031 531.0
-170.42401 -204.5088 540.0
-167.87115 -206.02367 544.0
-164.65904 -206.78111 546.0
-161.12431 -207.15984 547.0
-157.57558 -207.53856 548.0
-154.29333 -208.296 550.0
-150.70953 -208.67471 551.0
-146.84518 -208.67471 551.0
-142.98083 -208.67471 551.0
-139.62144 -209.43216 553.0
-135.98854 -209.81087 554.0
-132.3416 -210.1896 555.0
-128.68065 -210.56831 556.0
-125.23007 -211.32576 558.0
-122.186295 -212.84064 562.0
-118.87601 -213.9768 565.0
-114.91347 -213.9768 565.0
-111.34369 -214.73424 567.0
-107.55647 -215.11295 568.0
-103.75525 -215.49167 569.0
-100.29067 -216.62784 572.0
-96.44737 -217.00656 573.0
-92.75134 -217.764 575.0
-88.87296 -218.1427 576.0
-85.275116 -219.27887 579.0
-81.494934 -220.0363 581.0
-77.6867 -220.79376 583.0
-73.85041 -221.5512 585.0
-70.10528 -222.68736 588.0
-281.1786 -198.26692 514.0
-279.1938 -199.42413 517.0
-275.5679 -199.42413 517.0
-271.41602 -199.03839 516.0
-267.79715 -199.03839 516.0
-264.69022 -199.42413 517.0
-261.06433 -199.42413 517.0
-256.9405 -199.03839 516.0
-252.33974 -198.26692 514.0
-248.7349 -198.26692 514.0
-244.65314 -197.88118 513.0
-241.05528 -197.88118 513.0
-237.92032 -198.26692 514.0
-234.77135 -198.65266 515.0
-239.23883 -205.59586 533.0
-235.50073 -205.59586 533.0
-231.32779 -205.21013 532.0
-227.5967 -205.21013 532.0
-224.2864 -205.59586 533.0
-219.72073 -204.82439 531.0
-215.58987 -204.43866 530.0
-211.8728 -204.43866 530.0
-207.76299 -204.05293 529.0
-204.05295 -204.05293 529.0
-199.58545 -203.28146 527.0
-195.88943 -203.28146 527.0
-191.82869 -202.89574 526.0
-188.13968 -202.89574 526.0
-184.45067 -202.89574 526.0
-181.10532 -203.28146 527.0
-178.08258 -204.05293 529.0
-175.36139 -205.21013 532.0
-173.24336 -207.1388 537.0
-171.0552 -209.06746 542.0
-167.56256 -209.45319 543.0
-164.05591 -209.83893 544.0
-160.5352 -210.22466 545.0
-157.00047 -210.61038 546.0
-153.45174 -210.99612 547.0
-150.16249 -211.7676 549.0
-146.31218 -211.7676 549.0
-142.98083 -212.53906 551.0
-139.36896 -212.92479 552.0
-135.98854 -213.69626 554.0
-132.10316 -213.69626 554.0
-128.68065 -214.46773 556.0
-125.00565 -214.85345 557.0
-121.96888 -216.3964 561.0
-118.6656 -217.5536 564.0
-114.91347 -217.93932 565.0
-111.54007 -219.09651 568.0
-107.74584 -219.48225 569.0
-103.93761 -219.868 570.0
-100.29067 -220.63947 572.0
-96.44737 -221.0252 573.0
-92.75134 -221.79666 575.0
-89.02725 -222.56812 577.0
-85.12784 -222.95386 578.0
-81.494934 -224.11105 581.0
-279.53745 -200.69354 511.0
-275.95364 -200.69354 511.0
-272.90283 -201.08629 512.0
-270.364 -201.87178 514.0
-266.75916 -201.87178 514.0
-261.61838 -200.69354 511.0
-257.5296 -200.30078 510.0
-253.9528 -200.30078 510.0
-250.86694 -200.69354 511.0
-247.28314 -200.69354 511.0
-243.69933 -200.69354 511.0
-240.1155 -200.69354 511.0
-237.45746 -201.47902 513.0
-234.31548 -201.87178 514.0
-237.89227 -208.15572 530.0
-234.1752 -208.15572 530.0
-230.45815 -208.15572 530.0
-226.74107 -208.15572 530.0
-222.60321 -207.76297 529.0
-218.89316 -207.76297 529.0
-215.18312 -207.76297 529.0
-211.47304 -207.76297 529.0
-207.76299 -207.76297 529.0
-203.6672 -207.37022 528.0
-199.58545 -206.97748 527.0
-195.88943 -206.97748 527.0
-191.82869 -206.58475 526.0
-188.13968 -206.58475 526.0
-184.80135 -206.97748 527.0
-181.44896 -207.37022 528.0
-178.4192 -208.15572 530.0
-176.35027 -210.11946 535.0
-174.21121 -212.08319 540.0
-170.73961 -212.47592 541.0
-166.9454 -212.47592 541.0
-163.45276 -212.86868 542.0
-160.24063 -213.65417 544.0
-156.42538 -213.65417 544.0
-153.1712 -214.43967 546.0
-149.61545 -214.83241 547.0
-145.77916 -214.83241 547.0
-142.72133 -216.01067 550.0
-139.11649 -216.40341 551.0
-135.4976 -216.79614 552.0
-132.10316 -217.58165 554.0
-128.68065 -218.36713 556.0
-125.23007 -219.15263 558.0
-121.75147 -219.93811 560.0
-118.45521 -221.11635 563.0
-114.91347 -221.90186 565.0
-111.54007 -223.0801 568.0
-107.74584 -223.47284 569.0
-103.75525 -223.47284 569.0
-100.29067 -224.65108 572.0
-96.44737 -225.04384 573.0
-277.3493 -202.67833 507.0
-274.33356 -203.0781 508.0
-271.3038 -203.47784 509.0
-266.682 -202.67833 507.0
-263.12625 -202.67833 507.0
-259.5705 -202.67833 507.0
-256.0147 -202.67833 507.0
-252.45897 -202.67833 507.0
-248.90321 -202.67833 507.0
-245.34746 -202.67833 507.0
-242.2686 -203.0781 508.0
-239.1757 -203.47784 509.0
-236.53168 -204.27736 511.0
-233.8596 -205.07689 513.0
-230.71063 -205.47665 514.0
-233.73338 -211.47305 529.0
-230.0233 -211.47305 529.0
-226.31325 -211.47305 529.0
-222.60321 -211.47305 529.0
-218.89316 -211.47305 529.0
-214.77634 -211.0733 528.0
-210.67352 -210.67352 527.0
-206.9775 -210.67352 527.0
-203.28148 -210.67352 527.0
-199.58545 -210.67352 527.0
-195.88943 -210.67352 527.0
-192.19339 -210.67352 527.0
-188.49736 -210.67352 527.0
-185.15201 -211.0733 528.0
-182.13628 -211.87282 530.0
-179.76578 -213.47185 534.0
-176.6799 -214.27136 536.0
-174.21121 -215.8704 540.0
-170.42401 -215.8704 540.0
-166.63681 -215.8704 540.0
-163.15118 -216.27017 541.0
-159.65152 -216.66994 542.0
-156.13785 -217.0697 543.0
-152.61014 -217.46947 544.0
-149.34193 -218.26897 546.0
-145.51265 -218.26897 546.0
-141.94286 -218.66873 547.0
-139.36896 -220.66753 552.0
-135.98854 -221.46706 554.0
-132.10316 -221.46706 554.0
-128.68065 -222.26657 556.0
-125.23007 -223.0661 558.0
-275.7082 -205.01376 504.0
-271.63342 -204.607 503.0
-268.63873 -205.01376 504.0
-265.63 -205.42055 505.0
-261.5693 -205.01376 504.0
-257.5226 -204.607 503.0
-253.99487 -204.607 503.0
-250.96512 -205.01376 504.0
-247.92134 -205.42055 505.0
-244.86354 -205.82732 506.0
-241.7917 -206.23409 507.0
-238.70581 -206.64085 508.0
-235.60593 -207.04764 509.0
-232.94788 -207.86118 511.0
-230.26176 -208.67473 513.0
-232.40785 -213.96278 526.0
-229.15366 -214.36955 527.0
-225.45763 -214.36955 527.0
-221.76161 -214.36955 527.0
-218.06558 -214.36955 527.0
-214.36957 -214.36955 527.0
-210.67352 -214.36955 527.0
-206.9775 -214.36955 527.0
-203.28148 -214.36955 527.0
-199.58545 -214.36955 527.0
-195.88943 -214.36955 527.0
-192.19339 -214.36955 527.0
-189.21272 -215.18309 529.0
-185.85333 -215.58989 530.0
-183.5109 -217.21696 534.0
-180.1024 -217.62375 535.0
-177.00952 -218.4373 537.0
-173.56598 -218.84407 538.0
-170.42401 -219.6576 540.0
-166.63681 -219.6576 540.0
-162.84961 -219.6576 540.0
-159.35696 -220.06438 541.0
-155.8503 -220.47116 542.0
-152.3296 -220.87793 543.0
-148.79489 -221.28471 544.0
-145.51265 -222.09824 546.0
-141.94286 -222.505 547.0
-139.11649 -224.13213 551.0
-135.98854 -225.35242 554.0
-132.58006 -226.16597 556.0
-272.973 -206.47955 499.0
-270.01334 -206.89334 500.0
-267.03967 -207.30711 501.0
-262.474 -206.47955 499.0
-260.5313 -207.7209 502.0
-257.01062 -207.7209 502.0
-253.99487 -208.13469 503.0
-250.96512 -208.54848 504.0
-247.4304 -208.54848 504.0
-243.89569 -208.54848 504.0
-240.36098 -208.54848 504.0
-237.29614 -208.96227 505.0
-234.21729 -209.37605 506.0
-231.1244 -209.78984 507.0
-228.9152 -211.0312 510.0
-231.966 -217.238 525.0
-228.28401 -217.238 525.0
-224.602 -217.238 525.0
-221.3408 -217.6518 526.0
-217.65181 -217.6518 526.0
-213.96278 -217.6518 526.0
-210.67352 -218.06558 527.0
-206.9775 -218.06558 527.0
-203.6672 -218.47937 528.0
-200.3429 -218.89316 529.0
-196.63284 -218.89316 529.0
-192.92276 -218.89316 529.0
-189.5704 -219.30695 530.0
-186.55467 -220.13452 532.0
-183.5109 -220.9621 534.0
-179.76578 -220.9621 534.0
-176.6799 -221.78964 536.0
-173.24336 -222.20343 537.0
-170.10841 -223.031 539.0
-166.63681 -223.4448 540.0
-162.84961 -223.4448 540.0
-159.06241 -223.4448 540.0
-155.56274 -223.85858 541.0
-152.3296 -224.68617 543.0
-148.79489 -225.09996 544.0
-145.77916 -226.34132 547.0
-142.46184 -227.1689 549.0
-139.11649 -227.99644 551.0

