ply
format ascii 1.0
comment made by @arthurmuchir
element vertex 1081
property float x
property float y
property float z
end_header
-109.22565 -100.82368 599.0
-117.23489 -104.67399 597.0
-113.237274 -104.84932 598.0
-109.22565 -105.02466 599.0
-105.200005 -105.19999 600.0
-120.404915 -107.94921 592.0
-116.4494 -108.13156 593.0
-112.6692 -108.49626 595.0
-108.86096 -108.860954 597.0
-105.02467 -109.22563 599.0
-101.32864 -109.77268 602.0
-124.346405 -111.91178 591.0
-120.20152 -111.91178 591.0
-116.056656 -111.91178 591.0
-112.290474 -112.2905 593.0
-108.31392 -112.47985 594.0
-104.674 -113.04793 597.0
-127.40421 -115.074776 586.0
-123.7152 -115.46753 588.0
-119.79476 -115.66391 589.0
-115.86028 -115.86027 590.0
-112.10112 -116.25302 592.0
-108.31392 -116.64577 594.0
-131.2896 -118.9812 585.0
-127.186806 -118.9812 585.0
-123.2944 -119.184586 586.0
-119.59137 -119.59136 588.0
-115.6639 -119.794754 589.0
-112.10112 -120.40491 592.0
-135.16096 -122.873604 584.0
-130.84074 -122.6632 583.0
-126.96938 -122.873604 584.0
-123.08401 -123.084 585.0
-119.59137 -123.7152 588.0
-115.6639 -123.9256 589.0
-90.42992 -129.1856 614.0
-86.264 -129.396 615.0
-82.35057 -130.0272 618.0
-138.5414 -126.31714 581.0
-134.46666 -126.31714 581.0
-130.39189 -126.31714 581.0
-126.53456 -126.53455 582.0
-123.08401 -127.1868 585.0
-119.38798 -127.62162 587.0
-94.42751 -133.05695 612.0
-90.13536 -133.05695 612.0
-86.12373 -133.49179 614.0
-82.08406 -133.9266 616.0
-78.14257 -134.57884 619.0
-146.18591 -129.94304 579.0
-142.1252 -129.94304 579.0
-138.0645 -129.94304 579.0
-134.00377 -129.94304 579.0
-130.16747 -130.16747 580.0
-126.53456 -130.61632 582.0
-123.08401 -131.28958 585.0
-102.33857 -136.45142 608.0
-98.23577 -136.67584 609.0
-94.11893 -136.90025 610.0
-89.840805 -136.90025 610.0
-85.702934 -137.12468 611.0
-81.950806 -138.02238 615.0
-158.92915 -121.96887 527.0
-155.52768 -122.2003 528.0
-152.11218 -122.431755 529.0
-148.40215 -122.431755 529.0
-145.68097 -133.54086 577.0
-141.63428 -133.54086 577.0
-137.58759 -133.54086 577.0
-133.77234 -133.77231 578.0
-130.16747 -134.23518 580.0
-126.751976 -134.9295 583.0
-123.08401 -135.39238 585.0
-105.55067 -139.32687 602.0
-101.66529 -139.78975 604.0
-97.751854 -140.25262 606.0
-93.65605 -140.48407 607.0
-89.69352 -140.94695 609.0
-85.56267 -141.17839 610.0
-81.81756 -142.10416 614.0
-162.3166 -125.42646 526.0
-158.92915 -125.66492 527.0
-155.23312 -125.66492 527.0
-151.82465 -125.90338 528.0
-148.40215 -126.14182 529.0
-144.6921 -126.14182 529.0
-153.24133 -137.11069 575.0
-148.94916 -136.87222 574.0
-144.92352 -136.87222 574.0
-141.14334 -137.11069 575.0
-137.34912 -137.34914 576.0
-133.5409 -137.58759 577.0
-130.16747 -138.30295 580.0
-126.31715 -138.5414 581.0
-113.616 -143.072 600.0
-109.408005 -143.072 600.0
-105.375336 -143.31047 601.0
-101.160324 -143.31047 601.0
-97.42924 -144.02582 604.0
-93.65605 -144.7412 607.0
-89.69352 -145.2181 609.0
-166.0056 -129.11548 526.0
-162.3166 -129.11548 526.0
-158.326 -128.87001 525.0
-154.93857 -129.11548 526.0
-151.24954 -129.11548 526.0
-147.84106 -129.36095 527.0
-144.41856 -129.60641 528.0
-152.97485 -140.89787 574.0
-148.68968 -140.65242 573.0
-144.67105 -140.65242 573.0
-140.6524 -140.65242 573.0
-136.87222 -140.89787 574.0
-133.5409 -141.63428 577.0
-130.16747 -142.37067 580.0
-126.09974 -142.37067 580.0
-121.21846 -146.29814 596.0
-117.23489 -146.54361 597.0
-113.04792 -146.54361 597.0
-108.86096 -146.54361 597.0
-105.02467 -147.03455 599.0
-100.992004 -147.28001 600.0
-97.26794 -148.01642 603.0
-93.501755 -148.7528 606.0
-169.37201 -132.552 525.0
-165.69 -132.552 525.0
-162.00801 -132.552 525.0
-158.02444 -132.29953 524.0
-154.64401 -132.552 525.0
-150.962 -132.552 525.0
-147.56053 -132.80449 526.0
-144.14505 -133.05696 527.0
-152.44182 -144.41856 572.0
-148.1707 -144.16608 571.0
-144.41856 -144.41856 572.0
-140.6524 -144.67105 573.0
-137.11067 -145.176 575.0
-133.5409 -145.68097 577.0
-130.16747 -146.4384 580.0
-125.188 -150.2256 595.0
-120.81169 -149.97313 594.0
-116.64577 -149.97313 594.0
-112.6692 -150.2256 595.0
-108.67862 -150.47809 596.0
-104.674 -150.73056 597.0
-100.992004 -151.488 600.0
-97.10662 -151.99297 602.0
-173.71326 -136.75299 527.0
-169.37201 -136.234 525.0
-165.69 -136.234 525.0
-161.69943 -135.9745 524.0
-158.02444 -135.9745 524.0
-154.34943 -135.9745 524.0
-150.962 -136.234 525.0
-147.28 -136.234 525.0
-143.87154 -136.4935 526.0
-151.9088 -147.9112 570.0
-148.1707 -148.1707 571.0
-144.41856 -148.43019 572.0
-140.6524 -148.68968 573.0
-137.34912 -149.46817 576.0
-133.5409 -149.72766 577.0
-128.49129 -153.36057 591.0
-124.5568 -153.62006 592.0
-120.404915 -153.62006 592.0
-116.25302 -153.62006 592.0
-112.290474 -153.87955 593.0
-108.67862 -154.65802 596.0
-105.02467 -155.43651 599.0
-100.992004 -155.696 600.0
-178.4192 -141.24854 530.0
-173.71326 -140.449 527.0
-169.37201 -139.916 525.0
-165.69 -139.916 525.0
-161.69943 -139.64949 524.0
-158.02444 -139.64949 524.0
-154.34943 -139.64949 524.0
-150.67445 -139.64949 524.0
-146.99947 -139.64949 524.0
-155.08585 -151.10928 567.0
-151.37581 -151.3758 568.0
-147.91121 -151.9088 570.0
-144.41856 -152.44182 572.0
-140.6524 -152.70831 573.0
-137.34912 -153.50783 576.0
-131.96288 -156.70592 588.0
-127.83904 -156.70592 588.0
-123.925606 -156.97243 589.0
-119.79476 -156.97243 589.0
-116.056656 -157.50543 591.0
-112.290474 -158.03845 593.0
-108.67862 -158.83798 596.0
-105.02467 -159.6375 599.0
-186.20401 -145.23912 531.0
-182.13628 -144.9656 530.0
-177.74594 -144.41855 528.0
-173.38364 -143.87152 526.0
-169.37201 -143.598 525.0
-165.69 -143.598 525.0
-161.69943 -143.32446 524.0
-158.02444 -143.32446 524.0
-154.05487 -143.05095 523.0
-150.67445 -143.32446 524.0
-158.22081 -154.26527 564.0
-154.5388 -154.5388 565.0
-150.84279 -154.81232 566.0
-147.6517 -155.63287 569.0
-144.41856 -156.45343 572.0
-140.89787 -157.00047 574.0
-137.34912 -157.54752 576.0
-135.62386 -160.28271 586.0
-131.51402 -160.28271 586.0
-127.40421 -160.28271 586.0
-123.50481 -160.55623 587.0
-119.59137 -160.82976 588.0
-115.86028 -161.3768 590.0
-112.290474 -162.19736 593.0
-108.49627 -162.7444 595.0
-199.23479 -150.36586 536.0
-195.11095 -150.08533 535.0
-190.28577 -149.24373 532.0
-185.85333 -148.68266 530.0
-181.79263 -148.40213 529.0
-177.40929 -147.84106 527.0
-173.38364 -147.56053 526.0
-169.37201 -147.27998 525.0
-165.69 -147.27998 525.0
-161.69943 -146.99945 524.0
-157.72287 -146.71893 523.0
-154.34943 -146.99945 524.0
-150.67445 -146.99945 524.0
-157.94028 -157.94026 563.0
-154.5388 -158.50133 565.0
-150.84279 -158.78186 566.0
-147.39221 -159.34293 568.0
-144.41856 -160.46506 572.0
-140.6524 -160.74559 573.0
-138.30293 -162.70934 580.0
-135.16096 -163.83145 584.0
-131.2896 -164.11198 585.0
-127.186806 -164.11198 585.0
-123.2944 -164.39253 586.0
-119.59137 -164.95358 588.0
-115.6639 -165.23413 589.0
-112.290474 -166.35626 593.0
-81.15129 -170.84479 609.0
-77.00641 -171.12534 610.0
-72.96671 -171.68639 612.0
-68.78677 -171.96693 613.0
-202.2365 -153.54991 534.0
-198.11967 -153.26236 533.0
-194.01686 -152.97481 532.0
-189.5704 -152.39972 530.0
-185.50267 -152.11218 529.0
-181.44896 -151.82462 528.0
-177.40929 -151.53708 527.0
-173.38364 -151.24954 526.0
-169.37201 -150.96199 525.0
-165.69 -150.96199 525.0
-161.69943 -150.67445 524.0
-158.02444 -150.67445 524.0
-154.93857 -151.24954 526.0
-161.02614 -161.02612 560.0
-157.65974 -161.60121 562.0
-154.5388 -162.46385 565.0
-150.57628 -162.46385 565.0
-147.39221 -163.32649 568.0
-144.16608 -164.18913 571.0
-140.6524 -164.76422 573.0
-137.82603 -166.20197 578.0
-134.69809 -167.35216 582.0
-131.06517 -167.92723 584.0
-127.186806 -168.21478 585.0
-123.2944 -168.50233 586.0
-119.59137 -169.07742 588.0
-115.6639 -169.36497 589.0
-93.19317 -173.67818 604.0
-88.957115 -173.67818 604.0
-84.72107 -173.67818 604.0
-80.88478 -174.54082 607.0
-76.62769 -174.54082 607.0
-72.728264 -175.40346 610.0
-68.67456 -175.97855 612.0
-201.85776 -157.00049 533.0
-197.37625 -156.41136 531.0
-192.92276 -155.82225 529.0
-189.21272 -155.82225 529.0
-185.50267 -155.82225 529.0
-181.10532 -155.23312 527.0
-177.40929 -155.23312 527.0
-173.38364 -154.93857 526.0
-169.37201 -154.64401 525.0
-165.69 -154.64401 525.0
-162.00801 -154.64401 525.0
-167.97636 -164.06993 557.0
-164.36447 -164.3645 558.0
-161.31367 -165.24817 561.0
-157.65974 -165.54272 562.0
-154.26529 -166.13185 564.0
-150.57628 -166.4264 565.0
-147.13272 -167.01553 567.0
-143.9136 -167.89922 570.0
-140.40694 -168.48833 572.0
-137.34912 -169.66656 576.0
-134.23521 -170.84482 580.0
-130.61632 -171.43393 582.0
-126.96938 -172.02304 584.0
-123.08401 -172.31761 585.0
-119.18459 -172.61218 586.0
-96.6227 -176.44145 599.0
-92.730286 -177.03058 601.0
-88.66256 -177.32513 602.0
-84.72107 -177.91425 604.0
-80.48502 -177.91425 604.0
-76.50146 -178.50337 606.0
-72.60904 -179.38705 609.0
-205.98161 -161.04016 534.0
-201.47905 -160.43703 532.0
-197.00455 -159.83388 530.0
-192.92276 -159.53229 529.0
-189.21272 -159.53229 529.0
-185.50267 -159.53229 529.0
-181.44896 -159.23073 528.0
-177.40929 -158.92915 527.0
-174.04288 -159.23073 528.0
-169.69461 -158.62758 526.0
-166.0056 -158.62758 526.0
-170.95703 -167.07164 554.0
-167.67479 -167.67477 556.0
-164.36447 -168.27792 558.0
-161.31367 -169.18265 561.0
-157.65974 -169.48422 562.0
-154.26529 -170.08737 564.0
-150.57628 -170.38895 565.0
-147.13272 -170.99208 567.0
-143.66112 -171.59523 569.0
-140.16147 -172.19838 571.0
-137.34912 -173.70625 576.0
-134.00377 -174.61096 579.0
-130.39189 -175.21411 581.0
-126.751976 -175.81726 583.0
-108.67862 -179.73772 596.0
-104.49867 -179.73772 596.0
-100.487045 -180.03928 597.0
-96.4614 -180.34087 598.0
-92.576 -180.94402 600.0
-88.51528 -181.24557 601.0
-84.44054 -181.54715 602.0
-80.48502 -182.15031 604.0
-76.62769 -183.05502 607.0
-72.60904 -183.65817 609.0
-209.72672 -164.78528 534.0
-205.59587 -164.4767 533.0
-200.7216 -163.55095 530.0
-196.63284 -163.24236 529.0
-192.92276 -163.24236 529.0
-189.21272 -163.24236 529.0
-185.50267 -163.24236 529.0
-181.79263 -163.24236 529.0
-178.08258 -163.24236 529.0
-174.3725 -163.24236 529.0
-176.14688 -168.48831 546.0
-173.2644 -169.41408 549.0
-170.64842 -170.64844 553.0
-167.3732 -171.2656 555.0
-164.65903 -172.49995 559.0
-161.31367 -173.11711 561.0
-157.94028 -173.7343 563.0
-154.26529 -174.04288 564.0
-150.57628 -174.35147 565.0
-146.87323 -174.66006 566.0
-143.66112 -175.58582 569.0
-140.40694 -176.51158 572.0
-137.11067 -177.43735 575.0
-134.00377 -178.67168 579.0
-130.16747 -178.98027 580.0
-116.056656 -182.37473 591.0
-112.10112 -182.6833 592.0
-108.13157 -182.9919 593.0
-104.148 -183.30048 594.0
-100.150406 -183.60907 595.0
-96.13879 -183.91766 596.0
-92.2674 -184.53484 598.0
-88.368004 -185.152 600.0
-84.44054 -185.76918 602.0
-80.48502 -186.38635 604.0
-77.00641 -188.23787 610.0
-209.33398 -168.2148 533.0
-204.8244 -167.5836 531.0
-199.96416 -166.6368 528.0
-195.88943 -166.3212 527.0
-192.92276 -166.9524 529.0
-189.21272 -166.9524 529.0
-186.20401 -167.5836 531.0
-183.16724 -168.2148 533.0
-180.1024 -168.846 535.0
-178.98727 -171.3708 543.0
-176.14688 -172.3176 546.0
-173.2644 -173.2644 549.0
-170.95703 -174.8424 554.0
-167.3732 -175.158 555.0
-164.95361 -176.73601 560.0
-161.60123 -177.3672 562.0
-157.65974 -177.3672 562.0
-154.5388 -178.314 565.0
-150.57628 -178.314 565.0
-146.87323 -178.6296 566.0
-143.66112 -179.5764 569.0
-140.40694 -180.5232 572.0
-136.87222 -181.1544 574.0
-133.5409 -182.1012 577.0
-130.16747 -183.048 580.0
-127.40421 -184.9416 586.0
-123.50481 -185.2572 587.0
-119.38798 -185.2572 587.0
-115.27116 -185.2572 587.0
-111.533035 -185.8884 589.0
-107.766884 -186.5196 591.0
-103.79734 -186.8352 592.0
-99.81377 -187.1508 593.0
-96.13879 -188.0976 596.0
-92.11311 -188.4132 597.0
-88.368004 -189.36 600.0
-207.76299 -170.66245 529.0
-203.6672 -170.33983 528.0
-199.58545 -170.01723 527.0
-195.88943 -170.01723 527.0
-192.92276 -170.66245 529.0
-189.21272 -170.66245 529.0
-186.20401 -171.30768 531.0
-183.5109 -172.27551 534.0
-180.7757 -173.24335 537.0
-177.99841 -174.2112 540.0
-176.14688 -176.14688 546.0
-173.8956 -177.75993 551.0
-170.95703 -178.72778 554.0
-167.97636 -179.69562 557.0
-164.95361 -180.66345 560.0
-161.31367 -180.98608 561.0
-157.65974 -181.3087 562.0
-154.26529 -181.95392 564.0
-150.57628 -182.27654 565.0
-146.61374 -182.27654 565.0
-143.66112 -183.56699 569.0
-139.916 -183.8896 570.0
-136.63377 -184.85744 573.0
-133.30945 -185.82527 576.0
-130.16747 -187.11572 580.0
-126.96938 -188.40619 584.0
-122.873604 -188.40619 584.0
-118.777824 -188.40619 584.0
-114.87841 -188.7288 585.0
-111.15432 -189.37402 587.0
-107.40218 -190.01924 589.0
-103.79734 -190.98709 592.0
-99.81377 -191.30971 593.0
-95.97748 -191.95493 595.0
-211.47304 -174.37251 529.0
-206.9775 -173.71324 527.0
-202.89574 -173.38362 526.0
-199.20674 -173.38362 526.0
-196.26114 -174.04288 528.0
-192.92276 -174.37251 529.0
-189.5704 -174.70213 530.0
-186.55467 -175.36137 532.0
-183.85454 -176.35027 535.0
-181.78561 -177.99838 540.0
-178.98727 -178.98727 543.0
-176.4695 -180.30577 547.0
-174.21121 -181.95392 552.0
-170.95703 -182.61316 554.0
-167.97636 -183.60205 557.0
-164.95361 -184.59093 560.0
-161.31367 -184.92055 561.0
-157.65974 -185.25018 562.0
-154.26529 -185.90944 564.0
-150.57628 -186.23906 565.0
-146.61374 -186.23906 565.0
-143.40865 -187.22794 568.0
-139.67053 -187.55757 569.0
-136.39531 -188.54645 572.0
-133.30945 -189.86496 576.0
-130.16747 -191.18346 580.0
-126.31715 -191.51308 581.0
-122.452805 -191.84271 582.0
-118.57443 -192.17235 583.0
-114.87841 -192.83159 585.0
-110.96495 -193.16122 586.0
-107.40218 -194.1501 589.0
-103.79734 -195.13898 592.0
-215.58987 -178.41919 530.0
-211.07327 -177.74591 528.0
-206.9775 -177.40927 527.0
-202.89574 -177.07263 526.0
-199.20674 -177.07263 526.0
-195.88943 -177.40927 527.0
-192.92276 -178.08255 529.0
-189.5704 -178.41919 530.0
-187.25601 -179.76575 534.0
-184.1982 -180.43904 536.0
-182.4589 -182.45886 542.0
-179.3169 -183.13216 544.0
-177.11472 -184.81535 549.0
-174.52681 -186.16191 553.0
-171.5742 -187.17183 556.0
-168.27794 -187.84511 558.0
-164.95361 -188.51839 560.0
-161.60123 -189.19167 562.0
-157.94028 -189.5283 563.0
-154.26529 -189.86496 564.0
-150.57628 -190.20158 565.0
-146.61374 -190.20158 565.0
-143.15616 -190.87486 567.0
-139.42508 -191.2115 568.0
-136.39531 -192.55807 572.0
-133.07802 -193.568 575.0
-129.49419 -194.24127 577.0
-126.09974 -195.25119 580.0
-122.2424 -195.58783 581.0
-118.57443 -196.26111 583.0
-114.87841 -196.93439 585.0
-110.96495 -197.27103 586.0
-107.40218 -198.28096 589.0
-263.73642 -187.29108 545.0
-257.5296 -185.57281 540.0
-256.0919 -187.29108 545.0
-228.9152 -186.94742 544.0
-222.20345 -184.54185 537.0
-215.58987 -182.13629 530.0
-211.07327 -181.44897 528.0
-206.9775 -181.10532 527.0
-203.28148 -181.10532 527.0
-199.58545 -181.10532 527.0
-196.26114 -181.44897 528.0
-192.92276 -181.79262 529.0
-189.92807 -182.47993 531.0
-187.25601 -183.5109 534.0
-184.54185 -184.54185 537.0
-182.4589 -186.26012 542.0
-179.97617 -187.63474 546.0
-177.43735 -189.00934 550.0
-174.8424 -190.38396 554.0
-171.88278 -191.41492 557.0
-168.27794 -191.75858 558.0
-164.95361 -192.44588 560.0
-161.60123 -193.1332 562.0
-157.65974 -193.1332 562.0
-153.99176 -193.47684 563.0
-150.57628 -194.16414 565.0
-146.61374 -194.16414 565.0
-143.15616 -194.85144 567.0
-139.42508 -195.19511 568.0
-136.15686 -196.22607 571.0
-132.61513 -196.91338 573.0
-129.49419 -198.288 577.0
-126.09974 -199.31894 580.0
-122.2424 -199.6626 581.0
-118.777824 -200.69357 584.0
-114.87841 -201.03722 585.0
-260.19467 -185.85335 530.0
-256.96155 -186.20401 531.0
-256.0989 -188.30801 537.0
-252.80261 -188.65868 538.0
-254.12112 -192.516 549.0
-250.72667 -192.86667 550.0
-244.77939 -194.26935 554.0
-239.5895 -193.21735 551.0
-233.58607 -191.46402 546.0
-227.6528 -189.71068 541.0
-220.9621 -187.25601 534.0
-215.58987 -185.85335 530.0
-211.07327 -185.15201 528.0
-206.9775 -184.80135 527.0
-203.28148 -184.80135 527.0
-199.58545 -184.80135 527.0
-195.88943 -184.80135 527.0
-192.92276 -185.50267 529.0
-189.92807 -186.20401 531.0
-187.60667 -187.60667 535.0
-185.5728 -189.36002 540.0
-182.4589 -190.06134 542.0
-179.97617 -191.46402 546.0
-178.08257 -193.56801 552.0
-175.158 -194.62001 555.0
-171.88278 -195.32133 557.0
-168.27794 -195.67201 558.0
-164.65903 -196.02267 559.0
-161.31367 -196.72401 561.0
-157.65974 -197.07468 562.0
-153.99176 -197.42534 563.0
-150.57628 -198.12668 565.0
-146.61374 -198.12668 565.0
-142.6512 -198.12668 565.0
-139.42508 -199.17867 568.0
-135.91841 -199.88002 570.0
-132.3837 -200.58134 572.0
-129.26976 -201.98401 576.0
-125.66491 -202.68535 578.0
-122.2424 -203.73734 581.0
-286.7612 -192.43185 538.0
-280.358 -190.64345 533.0
-275.58194 -189.92809 531.0
-270.83392 -189.21274 529.0
-267.12384 -189.21274 529.0
-263.91174 -189.5704 530.0
-260.19467 -189.5704 530.0
-255.9937 -189.21274 529.0
-253.71436 -190.28577 532.0
-250.92303 -191.00113 534.0
-249.95522 -193.1472 540.0
-248.90321 -195.29329 546.0
-245.07394 -195.29329 546.0
-241.24466 -195.29329 546.0
-237.41536 -195.29329 546.0
-232.30266 -194.22025 543.0
-225.9696 -192.07416 537.0
-220.9621 -191.00113 534.0
-215.99666 -189.92809 531.0
-211.47304 -189.21274 529.0
-206.9775 -188.49736 527.0
-203.28148 -188.49736 527.0
-199.58545 -188.49736 527.0
-196.26114 -188.85504 528.0
-193.28748 -189.5704 530.0
-190.28577 -190.28577 532.0
-187.95734 -191.71648 536.0
-185.22916 -192.78954 539.0
-183.13219 -194.57793 544.0
-181.29468 -196.724 550.0
-178.40518 -197.79704 553.0
-175.4736 -198.87009 556.0
-171.88278 -199.22777 557.0
-168.27794 -199.58545 558.0
-164.36447 -199.58545 558.0
-161.02614 -200.3008 560.0
-157.37921 -200.65848 561.0
-153.71825 -201.01616 562.0
-150.30978 -201.73154 564.0
-146.35423 -201.73154 564.0
-142.6512 -202.0892 565.0
-138.93414 -202.44688 566.0
-135.4415 -203.16225 568.0
-132.15225 -204.23528 571.0
-128.8209 -205.30833 574.0
-124.79525 -205.30833 574.0
-292.1194 -194.74625 534.0
-284.59406 -192.19339 527.0
-280.89804 -192.19339 527.0
-278.254 -192.92278 529.0
-274.54398 -192.92278 529.0
-269.29797 -191.82869 526.0
-266.11392 -192.19339 527.0
-262.4179 -192.19339 527.0
-258.23096 -191.82869 526.0
-254.54195 -191.82869 526.0
-252.28365 -192.92278 529.0
-250.45314 -194.38156 533.0
-251.34386 -198.02849 543.0
-247.53561 -198.02849 543.0
-243.72737 -198.02849 543.0
-239.03545 -197.29909 541.0
-234.80641 -196.9344 540.0
-231.01921 -196.9344 540.0
-225.9696 -195.84032 537.0
-220.9621 -194.74625 534.0
-215.99666 -193.65216 531.0
-211.47304 -192.92278 529.0
-206.9775 -192.19339 527.0
-203.28148 -192.19339 527.0
-199.96416 -192.55809 528.0
-196.63284 -192.92278 529.0
-193.65216 -193.65216 531.0
-190.64345 -194.38156 533.0
-188.30801 -195.84032 537.0
-185.91647 -197.29909 541.0
-184.14209 -199.48726 547.0
-181.6243 -200.94603 551.0
-178.72778 -202.0401 554.0
-175.158 -202.4048 555.0
-171.88278 -203.13419 557.0
-167.97636 -203.13419 557.0
-164.36447 -203.49889 558.0
-160.73859 -203.86357 559.0
-157.37921 -204.59297 561.0
-153.44473 -204.59297 561.0
-149.77676 -204.95766 562.0
-146.09474 -205.32236 563.0
-142.14624 -205.32236 563.0
-138.68867 -206.05173 565.0
-134.9646 -206.41643 566.0
-131.68938 -207.51051 569.0
-128.37206 -208.60458 572.0
-285.00784 -193.65918 521.0
-281.89392 -194.03088 522.0
-278.766 -194.40259 523.0
-275.09802 -194.40259 523.0
-271.43002 -194.40259 523.0
-267.2501 -194.03088 522.0
-261.56927 -192.54405 518.0
-258.93228 -193.28748 520.0
-255.77628 -193.65918 521.0
-252.60625 -194.03088 522.0
-249.89911 -194.77429 524.0
-253.74242 -200.7216 540.0
-250.41808 -201.0933 541.0
-247.07974 -201.46501 542.0
-242.82967 -201.0933 541.0
-238.59361 -200.7216 540.0
-234.80641 -200.7216 540.0
-230.16359 -199.9782 538.0
-225.9696 -199.60648 537.0
-220.9621 -198.49135 534.0
-215.99666 -197.37624 531.0
-211.47304 -196.63283 529.0
-207.37025 -196.26112 528.0
-203.6672 -196.26112 528.0
-200.3429 -196.63283 529.0
-197.00455 -197.00453 530.0
-193.65216 -197.37624 531.0
-191.00111 -198.49135 534.0
-189.00934 -200.3499 539.0
-186.94743 -202.20842 544.0
-184.81538 -204.06696 549.0
-181.95392 -205.18208 552.0
-178.72778 -205.92549 554.0
-174.8424 -205.92549 554.0
-171.5742 -206.6689 556.0
-167.67479 -206.6689 556.0
-164.06992 -207.04062 557.0
-160.1635 -207.04062 557.0
-156.81815 -207.78403 559.0
-153.1712 -208.15573 560.0
-149.24374 -208.15573 560.0
-145.57576 -208.52744 561.0
-141.64128 -208.52744 561.0
-138.4432 -209.64255 564.0
-134.72614 -210.01427 565.0
-131.45793 -211.1294 568.0
-127.923195 -211.8728 570.0
-283.9138 -196.55566 519.0
-280.81387 -196.9344 520.0
-277.16693 -196.9344 520.0
-274.04602 -197.31311 521.0
-269.87308 -196.9344 520.0
-264.69022 -195.79823 517.0
-261.06433 -195.79823 517.0
-257.43845 -195.79823 517.0
-254.7944 -196.55566 519.0
-251.1545 -196.55566 519.0
-248.46838 -197.31311 521.0
-245.75421 -198.07056 523.0
-249.95522 -204.5088 540.0
-246.16801 -204.5088 540.0
-242.38081 -204.5088 540.0
-238.59361 -204.5088 540.0
-233.93675 -203.75136 538.0
-229.73576 -203.37263 537.0
-225.9696 -203.37263 537.0
-220.9621 -202.23647 534.0
-216.40343 -201.47903 532.0
-211.8728 -200.7216 530.0
-207.76299 -200.34286 529.0
-204.05295 -200.34286 529.0
-200.7216 -200.7216 530.0
-197.00455 -200.7216 530.0
-194.38155 -201.85776 533.0
-191.35881 -202.6152 535.0
-189.71068 -204.88751 541.0
-187.63474 -206.78111 546.0
-185.15201 -208.296 550.0
-181.95392 -209.05344 552.0
-178.72778 -209.81087 554.0
-174.8424 -209.81087 554.0
-170.95703 -209.81087 554.0
-167.3732 -210.1896 555.0
-163.4808 -210.1896 555.0
-159.87595 -210.56831 556.0
-156.25706 -210.94704 557.0
-152.62416 -211.32576 558.0
-148.97725 -211.70447 559.0
-145.31627 -212.0832 560.0
-141.64128 -212.46191 561.0
-137.95227 -212.84064 562.0
-134.72614 -213.9768 565.0
-131.22649 -214.73424 567.0
-127.69878 -215.49167 569.0
-123.490776 -215.11295 568.0
-119.717606 -215.49167 569.0
-116.13379 -216.2491 571.0
-112.7183 -217.38527 574.0
-108.881996 -217.764 575.0
-104.849335 -217.764 575.0
-97.12064 -218.52144 577.0
-85.4224 -219.6576 580.0
-81.35467 -219.6576 580.0
-280.63153 -197.88118 513.0
-277.5737 -198.26692 514.0
-273.96884 -198.26692 514.0
-269.838 -197.88118 513.0
-266.75916 -198.26692 514.0
-263.15433 -198.26692 514.0
-259.54944 -198.26692 514.0
-255.9446 -198.26692 514.0
-252.83067 -198.65266 515.0
-250.18665 -199.42413 517.0
-247.99147 -200.58133 520.0
-244.81444 -200.96706 521.0
-249.02945 -207.52454 538.0
-244.80042 -207.1388 537.0
-240.5854 -206.75305 536.0
-236.82625 -206.75305 536.0
-232.63228 -206.36732 535.0
-228.45232 -205.98158 534.0
-225.128 -206.36732 535.0
-220.9621 -205.98158 534.0
-216.81021 -205.59586 533.0
-211.8728 -204.43866 530.0
-208.15575 -204.43866 530.0
-204.43867 -204.43866 530.0
-201.47905 -205.21013 532.0
-198.11967 -205.59586 533.0
-194.74623 -205.98158 534.0
-193.1472 -208.29599 540.0
-190.76268 -209.83893 544.0
-187.97838 -210.99612 547.0
-185.15201 -212.15334 550.0
-181.6243 -212.53906 551.0
-177.75995 -212.53906 551.0
-174.21121 -212.92479 552.0
-170.64842 -213.31053 553.0
-167.07164 -213.69626 554.0
-163.18623 -213.69626 554.0
-159.30086 -213.69626 554.0
-155.696 -214.08199 555.0
-152.07713 -214.46773 556.0
-148.71074 -215.23918 558.0
-145.05676 -215.62492 559.0
-141.38881 -216.01067 560.0
-137.7068 -216.3964 561.0
-134.72614 -217.93932 565.0
-130.99504 -218.32506 566.0
-127.249916 -218.7108 567.0
-123.27336 -218.7108 567.0
-119.5072 -219.09651 568.0
-115.72703 -219.48225 569.0
-112.12918 -220.25372 571.0
-108.50327 -221.0252 573.0
-104.48464 -221.0252 573.0
-100.81667 -221.79666 575.0
-96.952324 -222.1824 576.0
-93.07396 -222.56812 577.0
-89.02725 -222.56812 577.0
-85.12784 -222.95386 578.0
-81.35467 -223.72531 580.0
-77.286934 -223.72531 580.0
-278.4434 -199.90805 509.0
-275.4136 -200.30078 510.0
-272.3698 -200.69354 511.0
-268.786 -200.69354 511.0
-265.2022 -200.69354 511.0
-261.61838 -200.69354 511.0
-258.03458 -200.69354 511.0
-255.9446 -201.87178 514.0
-252.33974 -201.87178 514.0
-249.70274 -202.65727 516.0
-247.03767 -203.44276 518.0
-244.81444 -204.621 521.0
-242.08626 -205.4065 523.0
-243.43282 -209.7267 534.0
-240.13654 -210.11946 535.0
-235.94258 -209.7267 534.0
-232.19743 -209.7267 534.0
-228.45232 -209.7267 534.0
-224.70721 -209.7267 534.0
-220.9621 -209.7267 534.0
-216.81021 -209.33397 533.0
-212.67232 -208.94121 532.0
-208.54848 -208.54848 531.0
-205.21014 -208.94121 532.0
-201.85776 -209.33397 533.0
-198.49138 -209.7267 534.0
-196.20502 -211.2977 538.0
-193.1472 -212.08319 540.0
-191.11334 -214.04692 545.0
-187.97838 -214.83241 547.0
-184.47874 -215.22516 548.0
-180.96503 -215.6179 549.0
-177.43735 -216.01067 550.0
-173.8956 -216.40341 551.0
-170.03127 -216.40341 551.0
-166.16692 -216.40341 551.0
-162.59712 -216.79614 552.0
-159.01332 -217.18889 553.0
-155.41547 -217.58165 554.0
-151.8036 -217.97438 555.0
-148.44423 -218.75989 557.0
-144.79727 -219.15263 558.0
-141.13632 -219.54536 559.0
-137.7068 -220.33087 561.0
-134.24924 -221.11635 563.0
-130.76361 -221.90186 565.0
-127.0255 -222.29462 566.0
-123.05595 -222.29462 566.0
-119.29681 -222.68733 567.0
-115.523636 -223.0801 568.0
-111.736435 -223.47284 569.0
-107.935196 -223.86557 570.0
-104.11995 -224.25833 571.0
-100.29067 -224.65108 572.0
-96.44737 -225.04384 573.0
-92.590034 -225.43657 574.0
-88.56437 -225.43657 574.0
-84.83328 -226.22208 576.0
-80.93387 -226.61482 577.0
-77.15369 -227.4003 579.0
-73.21921 -227.79306 580.0
-276.80225 -202.27856 506.0
-273.2535 -202.27856 506.0
-270.77078 -203.0781 508.0
-267.734 -203.47784 509.0
-265.2022 -204.27736 511.0
-261.61838 -204.27736 511.0
-258.03458 -204.27736 511.0
-254.45074 -204.27736 511.0
-252.33974 -205.47665 514.0
-248.7349 -205.47665 514.0
-246.08385 -206.27617 516.0
-244.81444 -208.27496 521.0
-245.78928 -212.27257 531.0
-242.97694 -213.0721 533.0
-239.6877 -213.47185 534.0
-235.94258 -213.47185 534.0
-232.19743 -213.47185 534.0
-228.45232 -213.47185 534.0
-224.70721 -213.47185 534.0
-220.9621 -213.47185 534.0
-216.81021 -213.0721 533.0
-213.07208 -213.0721 533.0
-209.33398 -213.0721 533.0
-205.59587 -213.0721 533.0
-202.2365 -213.47185 534.0
-199.60649 -214.67113 537.0
-196.5697 -215.47066 539.0
-193.86256 -216.66994 542.0
-191.11334 -217.8692 545.0
-187.63474 -218.26897 546.0
-184.14209 -218.66873 547.0
-180.30579 -218.66873 547.0
-176.79211 -219.0685 548.0
-173.58 -219.868 550.0
-170.03127 -220.26776 551.0
-166.16692 -220.26776 551.0
-162.30257 -220.26776 551.0
-159.01332 -221.06729 553.0
-155.41547 -221.46706 554.0
-151.53009 -221.46706 554.0
-148.17772 -222.26657 556.0
-144.79727 -223.0661 558.0
-141.64128 -224.26537 561.0
-137.7068 -224.26537 561.0
-134.24924 -225.0649 563.0
-130.76361 -225.8644 565.0
-127.0255 -226.26416 566.0
-123.05595 -226.26416 566.0
-119.29681 -226.66393 567.0
-115.523636 -227.06369 568.0
-111.54007 -227.06369 568.0
-107.74584 -227.46346 569.0
-103.93761 -227.8632 570.0
-100.11533 -228.26297 571.0
-96.279045 -228.66273 572.0
-92.428734 -229.0625 573.0
-88.56437 -229.46227 574.0
-84.686005 -229.862 575.0
-80.7936 -230.26176 576.0
-77.02043 -231.0613 578.0
-73.21921 -231.8608 580.0
-275.7082 -205.01376 504.0
-272.71347 -205.42055 505.0
-270.23776 -206.23409 507.0
-266.682 -206.23409 507.0
-264.1642 -207.04764 509.0
-260.08246 -206.64085 508.0
-256.0147 -206.23409 507.0
-252.45897 -206.23409 507.0
-249.88507 -207.04764 509.0
-247.28314 -207.86118 511.0
-244.17622 -208.26796 512.0
-240.1155 -207.86118 511.0
-245.32642 -215.58989 530.0
-242.06522 -215.99663 531.0
-238.78998 -216.40341 532.0
-235.50073 -216.8102 533.0
-232.19743 -217.21696 534.0
-228.45232 -217.21696 534.0
-224.70721 -217.21696 534.0
-220.9621 -217.21696 534.0
-217.21698 -217.21696 534.0
-213.47183 -217.21696 534.0
-209.72672 -217.21696 534.0
-205.98161 -217.21696 534.0
-202.99394 -218.03052 536.0
-199.60649 -218.4373 537.0
-196.9344 -219.6576 540.0
-194.22025 -220.87793 543.0
-190.76268 -221.28471 544.0
-187.63474 -222.09824 546.0
-183.80545 -222.09824 546.0
-179.97617 -222.09824 546.0
-176.4695 -222.505 547.0
-173.2644 -223.31856 549.0
-169.72267 -223.72534 550.0
-165.86534 -223.72534 550.0
-162.00801 -223.72534 550.0
-158.72577 -224.5389 552.0
-155.41547 -225.35242 554.0
-151.8036 -225.7592 555.0
-148.44423 -226.57275 557.0
-144.79727 -226.97954 558.0
-141.64128 -228.19983 561.0
-137.7068 -228.19983 561.0
-134.48769 -229.42017 564.0
-130.76361 -229.82693 565.0
-127.0255 -230.23372 566.0
-122.83854 -229.82693 565.0
-119.5072 -231.04727 568.0
-115.523636 -231.04727 568.0
-111.54007 -231.04727 568.0
-107.55647 -231.04727 568.0
-103.75525 -231.45403 569.0
-100.11533 -232.26758 571.0
-96.279045 -232.67435 572.0
-92.428734 -233.08113 573.0
-88.71866 -233.89468 575.0
-84.83328 -234.30147 576.0
-80.93387 -234.7082 577.0
-76.88718 -234.7082 577.0
-274.6141 -207.7209 502.0
-272.71347 -208.96227 505.0
-268.1057 -208.13469 503.0
-264.052 -207.7209 502.0
-261.0503 -208.13469 503.0
-258.03458 -208.54848 504.0
-254.49983 -208.54848 504.0
-251.46307 -208.96227 505.0
-248.90321 -209.78984 507.0
-245.34746 -209.78984 507.0
-243.22241 -211.0312 510.0
-239.64561 -211.0312 510.0
-244.86353 -218.89316 529.0
-241.15347 -218.89316 529.0
-238.34114 -219.72073 531.0
-235.50073 -220.54831 533.0
-232.19743 -220.9621 534.0
-228.45232 -220.9621 534.0
-225.128 -221.37585 535.0
-221.37587 -221.37585 535.0
-218.03052 -221.78964 536.0
-213.87161 -221.37585 535.0
-210.5122 -221.78964 536.0
-206.75307 -221.78964 536.0
-203.37265 -222.20343 537.0
-200.34991 -223.031 539.0
-196.9344 -223.4448 540.0
-193.86256 -224.27237 542.0
-190.76268 -225.09996 544.0
-186.94743 -225.09996 544.0
-183.46881 -225.51375 545.0
-179.97617 -225.92754 546.0
-176.4695 -226.34132 547.0
-172.63321 -226.34132 547.0
-169.1055 -226.75511 548.0
-165.56378 -227.1689 549.0
-162.00801 -227.58266 550.0
-158.4382 -227.99644 551.0
-155.41547 -229.23781 554.0
-152.35065 -230.47917 557.0
-148.71074 -230.89296 558.0
-145.05676 -231.30675 559.0
-141.38881 -231.72054 560.0
-95.77409 -235.44461 569.0

