ply
format ascii 1.0
comment made by @arthurmuchir
element vertex 957
property float x
property float y
property float z
end_header
-130.76361 -118.876 565.0
-151.37581 -123.49076 568.0
-146.61374 -122.83853 565.0
-142.6512 -122.83853 565.0
-138.19774 -122.40371 563.0
-134.01079 -122.186295 562.0
-130.53217 -122.62112 564.0
-126.80106 -122.83853 565.0
-123.27336 -123.27335 567.0
-73.976654 -127.40421 586.0
-155.63289 -127.69876 569.0
-150.84279 -127.02548 566.0
-146.61374 -126.801056 565.0
-141.64128 -125.90335 561.0
-135.98854 -124.33237 554.0
-132.3416 -124.556786 555.0
-128.9121 -125.005646 557.0
-126.57664 -126.57664 564.0
-123.490776 -127.47434 568.0
-73.59793 -130.84074 583.0
-69.628365 -131.06517 584.0
-65.6448 -131.28958 585.0
-61.752403 -131.73845 587.0
-168.78288 -132.61511 573.0
-163.90161 -131.92079 570.0
-159.62347 -131.68935 569.0
-155.35936 -131.4579 568.0
-150.57628 -130.76358 565.0
-146.61374 -130.76358 565.0
-139.36896 -127.75487 552.0
-135.74307 -127.986305 553.0
-132.10316 -128.21776 554.0
-128.44922 -128.44919 555.0
-125.67893 -129.60638 560.0
-122.83854 -130.76358 565.0
-119.5072 -131.4579 568.0
-81.6352 -134.69807 582.0
-77.42019 -134.46663 581.0
-73.47169 -134.69807 582.0
-69.389915 -134.69807 582.0
-65.532585 -135.16095 584.0
-61.542004 -135.39238 585.0
-168.48831 -136.39532 572.0
-164.18915 -136.15688 571.0
-155.41547 -132.10315 554.0
-152.35065 -132.81851 557.0
-148.71074 -133.05698 558.0
-133.53387 -129.71863 544.0
-130.19553 -130.19553 546.0
-127.75489 -131.62625 552.0
-124.55679 -132.34161 555.0
-121.31664 -133.05698 558.0
-118.45521 -134.24924 563.0
-114.50671 -134.24924 563.0
-110.95094 -134.72614 565.0
-107.74584 -135.67996 569.0
-89.64442 -138.5414 581.0
-85.56968 -138.5414 581.0
-81.494934 -138.5414 581.0
-77.42019 -138.5414 581.0
-73.34545 -138.5414 581.0
-69.27069 -138.5414 581.0
-65.532585 -139.25676 584.0
-177.43735 -135.00667 550.0
-174.8424 -135.98854 554.0
-170.64842 -135.74307 553.0
-166.77007 -135.74307 553.0
-163.18623 -135.98854 554.0
-159.30086 -135.98854 554.0
-155.41547 -135.98854 554.0
-151.53009 -135.98854 554.0
-147.64471 -135.98854 554.0
-135.83424 -132.06107 538.0
-133.04294 -133.04294 542.0
-130.19553 -134.02481 546.0
-127.06057 -134.76122 549.0
-124.10794 -135.74307 553.0
-120.44698 -135.98854 554.0
-116.56161 -135.98854 554.0
-113.48977 -136.97041 558.0
-110.558205 -138.19774 563.0
-106.988396 -138.68867 565.0
-93.71919 -142.61613 581.0
-89.64442 -142.61613 581.0
-85.4224 -142.37067 580.0
-81.35467 -142.37067 580.0
-77.286934 -142.37067 580.0
-73.34545 -142.61613 581.0
-69.50914 -143.10707 583.0
-184.14209 -138.10657 547.0
-180.6354 -138.35905 548.0
-176.4695 -138.10657 547.0
-172.63321 -138.10657 547.0
-169.4141 -138.61153 549.0
-165.86534 -138.864 550.0
-162.00801 -138.864 550.0
-158.4382 -139.11649 551.0
-154.57387 -139.11649 551.0
-150.98305 -139.36897 552.0
-147.3782 -139.62144 553.0
-138.05045 -134.31937 532.0
-134.82433 -134.82433 534.0
-132.30653 -136.08673 539.0
-129.48016 -137.09665 543.0
-126.36625 -137.85408 546.0
-123.659096 -139.11649 551.0
-119.35992 -138.61153 549.0
-115.72 -138.864 550.0
-112.06606 -139.11649 551.0
-110.558205 -142.14624 563.0
-106.79904 -142.39873 564.0
-101.86867 -146.69089 581.0
-97.79392 -146.69089 581.0
-93.55788 -146.4384 580.0
-89.49013 -146.4384 580.0
-85.4224 -146.4384 580.0
-81.35467 -146.4384 580.0
-77.42019 -146.69089 581.0
-73.59793 -147.19585 583.0
-69.628365 -147.44833 584.0
-187.63474 -141.68336 546.0
-183.80545 -141.68336 546.0
-179.64655 -141.42387 545.0
-175.82428 -141.42387 545.0
-172.31761 -141.68336 546.0
-168.48834 -141.68336 546.0
-164.96063 -141.94286 547.0
-161.41887 -142.20235 548.0
-158.15067 -142.72133 550.0
-154.29333 -142.72133 550.0
-150.70953 -142.98082 551.0
-146.84518 -142.98082 551.0
-137.27197 -137.27197 529.0
-134.31937 -138.05046 532.0
-131.32468 -138.82893 535.0
-128.7648 -140.1264 540.0
-126.13481 -141.42387 545.0
-120.51712 -139.34792 537.0
-118.05544 -140.90488 543.0
-114.66801 -141.42387 545.0
-111.659294 -142.46185 549.0
-108.20171 -142.98082 551.0
-104.90544 -143.75931 554.0
-105.76107 -150.50613 580.0
-101.86867 -150.76562 581.0
-97.6256 -150.50613 580.0
-93.39657 -150.24664 579.0
-89.33584 -150.24664 579.0
-85.4224 -150.50613 580.0
-81.494934 -150.76562 581.0
-77.42019 -150.76562 581.0
-186.26012 -144.44661 542.0
-182.4589 -144.44661 542.0
-178.98727 -144.71312 543.0
-175.17905 -144.71312 543.0
-171.6864 -144.97963 544.0
-168.48834 -145.51263 546.0
-164.65904 -145.51263 546.0
-161.12431 -145.77914 547.0
-157.86311 -146.31215 549.0
-154.29333 -146.57867 550.0
-150.70953 -146.84518 551.0
-147.1117 -147.11168 552.0
-136.75299 -140.449 527.0
-133.56192 -140.98203 529.0
-131.07921 -142.31456 534.0
-123.35754 -142.04805 533.0
-120.06826 -142.58107 535.0
-116.75096 -143.11409 537.0
-113.616005 -143.9136 540.0
-111.25252 -145.77914 547.0
-107.80897 -146.31215 549.0
-104.90544 -147.6447 554.0
-105.57872 -154.30736 579.0
-101.69334 -154.57387 580.0
-97.6256 -154.57387 580.0
-93.55788 -154.57387 580.0
-89.49013 -154.57387 580.0
-85.56968 -154.84038 581.0
-81.494934 -154.84038 581.0
-193.50488 -147.97432 541.0
-189.71068 -147.97432 541.0
-185.5728 -147.7008 540.0
-181.78561 -147.7008 540.0
-177.99841 -147.7008 540.0
-174.53381 -147.97432 541.0
-171.3708 -148.52135 543.0
-168.17973 -149.0684 545.0
-164.65904 -149.34192 546.0
-161.12431 -149.61543 547.0
-157.57558 -149.88895 548.0
-154.57387 -150.70952 551.0
-151.25656 -151.25655 553.0
-147.64471 -151.53008 554.0
-136.4935 -143.87152 526.0
-133.05696 -144.14503 527.0
-126.14182 -144.69206 529.0
-122.663216 -144.9656 530.0
-119.39498 -145.51263 532.0
-116.31614 -146.3332 535.0
-113.195206 -147.15375 538.0
-109.828804 -147.7008 540.0
-109.26072 -157.82103 577.0
-105.39637 -158.09456 578.0
-101.69334 -158.6416 580.0
-97.79392 -158.91512 581.0
-93.55788 -158.6416 580.0
-89.49013 -158.6416 580.0
-192.78952 -151.20746 539.0
-189.00934 -151.20746 539.0
-184.8855 -150.92693 538.0
-180.7757 -150.6464 537.0
-177.33914 -150.92693 538.0
-174.21121 -151.48799 540.0
-170.73961 -151.76852 541.0
-167.87115 -152.61012 544.0
-164.65904 -153.17119 546.0
-161.12431 -153.45174 547.0
-157.86311 -154.01279 549.0
-155.41547 -155.41545 554.0
-151.53009 -155.41545 554.0
-150.84279 -158.78186 566.0
-136.4935 -147.56053 526.0
-133.05696 -147.84106 527.0
-139.67053 -159.62346 569.0
-125.42646 -147.56053 526.0
-121.968895 -147.84106 527.0
-118.7217 -148.40213 529.0
-115.88131 -149.52426 533.0
-112.9848 -150.6464 537.0
-113.111046 -161.58719 576.0
-109.26072 -161.86774 577.0
-105.57872 -162.42879 579.0
-101.69334 -162.70934 580.0
-97.79392 -162.98985 581.0
-195.84032 -154.41255 537.0
-191.71648 -154.125 536.0
-187.95734 -154.125 536.0
-183.85454 -153.83746 535.0
-180.43906 -154.125 536.0
-176.6799 -154.125 536.0
-173.88858 -154.98764 539.0
-170.42401 -155.27519 540.0
-167.25398 -155.85028 542.0
-164.05591 -156.42537 544.0
-161.71342 -157.8631 549.0
-158.4382 -158.4382 551.0
-155.41547 -159.30084 554.0
-154.5388 -162.46385 565.0
-150.84279 -162.7514 566.0
-147.6517 -163.61403 569.0
-143.66112 -163.61403 569.0
-139.67053 -163.61403 569.0
-124.711105 -150.38689 523.0
-121.50601 -150.96199 525.0
-117.824 -150.96199 525.0
-115.88131 -153.26236 533.0
-112.35361 -153.54991 534.0
-113.30743 -165.91441 577.0
-109.45007 -166.20197 578.0
-105.57872 -166.4895 579.0
-199.60649 -158.17873 537.0
-195.84032 -158.17873 537.0
-191.00111 -157.29504 534.0
-187.25601 -157.29504 534.0
-183.5109 -157.29504 534.0
-179.76578 -157.29504 534.0
-176.35027 -157.58961 535.0
-173.56598 -158.4733 538.0
-170.42401 -159.06241 540.0
-166.9454 -159.35696 541.0
-164.05591 -160.24065 544.0
-160.82976 -160.82976 546.0
-158.4382 -162.30257 551.0
-157.65974 -165.54272 562.0
-154.5388 -166.4264 565.0
-151.1093 -167.01553 567.0
-147.6517 -167.60464 569.0
-143.66112 -167.60464 569.0
-139.67053 -167.60464 569.0
-124.711105 -154.0549 523.0
-121.27457 -154.34944 524.0
-117.824 -154.64401 525.0
-117.96427 -170.84482 580.0
-113.896545 -170.84482 580.0
-109.8288 -170.84482 580.0
-203.37265 -161.94489 537.0
-199.23479 -161.64333 536.0
-194.74623 -161.04016 534.0
-190.64345 -160.73859 533.0
-186.90533 -160.73859 533.0
-183.16724 -160.73859 533.0
-179.42914 -160.73859 533.0
-176.02063 -161.04016 534.0
-173.24336 -161.94489 537.0
-170.42401 -162.84961 540.0
-166.9454 -163.15118 541.0
-164.05591 -164.05591 544.0
-161.12431 -164.96062 547.0
-158.15067 -165.86534 550.0
-157.94028 -169.78578 563.0
-154.81233 -170.69052 566.0
-151.37581 -171.29366 568.0
-147.6517 -171.59523 569.0
-143.9136 -171.89682 570.0
-139.916 -171.89682 570.0
-136.39531 -172.49995 572.0
-121.73745 -158.62758 526.0
-128.8209 -173.1031 574.0
-125.01267 -173.40468 575.0
-121.4008 -174.00783 577.0
-117.96427 -174.91254 580.0
-114.28929 -175.51569 582.0
-202.6152 -165.09387 535.0
-198.49138 -164.78528 534.0
-194.01686 -164.1681 532.0
-189.92807 -163.85951 531.0
-186.20401 -163.85951 531.0
-182.47993 -163.85951 531.0
-179.0925 -164.1681 532.0
-175.69101 -164.4767 533.0
-172.59814 -165.09387 535.0
-170.42401 -166.6368 540.0
-167.25398 -167.25398 542.0
-164.35747 -168.17975 545.0
-161.41887 -169.1055 548.0
-161.02614 -172.80855 560.0
-158.50134 -174.35147 565.0
-154.81233 -174.66006 566.0
-151.1093 -174.96864 567.0
-147.39221 -175.27724 568.0
-143.66112 -175.58582 569.0
-139.916 -175.8944 570.0
-136.15686 -176.20299 571.0
-132.3837 -176.51158 572.0
-128.59648 -176.82016 573.0
-125.23008 -177.74593 576.0
-121.611206 -178.3631 578.0
-117.760895 -178.67168 579.0
-94.11893 -188.23787 610.0
-90.28264 -189.16364 613.0
-86.264 -189.7808 615.0
-82.61707 -191.32375 620.0
-206.75307 -169.1616 536.0
-201.85776 -168.2148 533.0
-197.37625 -167.5836 531.0
-193.28748 -167.268 530.0
-189.21272 -166.9524 529.0
-185.50267 -166.9524 529.0
-182.13628 -167.268 530.0
-178.75584 -167.5836 531.0
-175.69101 -168.2148 533.0
-172.59814 -168.846 535.0
-170.42401 -170.424 540.0
-167.25398 -171.0552 542.0
-164.65904 -172.3176 546.0
-164.06992 -175.7892 557.0
-161.02614 -176.73601 560.0
-158.22081 -177.9984 564.0
-154.5388 -178.314 565.0
-150.57628 -178.314 565.0
-146.87323 -178.6296 566.0
-143.40865 -179.2608 568.0
-139.67053 -179.5764 569.0
-135.91841 -179.892 570.0
-132.15225 -180.2076 571.0
-128.59648 -180.8388 573.0
-125.23008 -181.7856 576.0
-121.611206 -182.4168 578.0
-117.96427 -183.048 580.0
-115.46754 -185.5728 588.0
-111.91175 -186.5196 591.0
-105.200005 -189.36 600.0
-101.32864 -189.9912 602.0
-97.42924 -190.6224 604.0
-93.81034 -191.8848 608.0
-90.13536 -193.1472 612.0
-86.12373 -193.7784 614.0
-82.35057 -195.0408 618.0
-245.52278 -176.4695 547.0
-205.98161 -172.27551 534.0
-201.47905 -171.6303 532.0
-197.00455 -170.98506 530.0
-192.92276 -170.66245 529.0
-189.21272 -170.66245 529.0
-185.50267 -170.66245 529.0
-181.79263 -170.66245 529.0
-178.4192 -170.98506 530.0
-175.69101 -171.95291 533.0
-172.92075 -172.92075 536.0
-170.10841 -173.8886 539.0
-167.25398 -174.85643 542.0
-164.65904 -176.14688 546.0
-164.06992 -179.69562 557.0
-161.02614 -180.66345 560.0
-157.65974 -181.3087 562.0
-154.26529 -181.95392 564.0
-150.57628 -182.27654 565.0
-146.61374 -182.27654 565.0
-143.15616 -182.92175 567.0
-139.42508 -183.24437 568.0
-135.4415 -183.24437 568.0
-131.9208 -183.8896 570.0
-128.59648 -184.85744 573.0
-125.01267 -185.50266 575.0
-121.4008 -186.14789 577.0
-118.167656 -187.43834 581.0
-115.07479 -189.0514 586.0
-111.533035 -190.01924 589.0
-107.94923 -190.98709 592.0
-104.674 -192.60016 597.0
-100.992004 -193.568 600.0
-97.10662 -194.21323 602.0
-93.65605 -195.8263 607.0
-89.840805 -196.79413 610.0
-85.98347 -197.76196 613.0
-248.90321 -179.97615 546.0
-244.17622 -179.3169 544.0
-215.47063 -177.66876 539.0
-210.5122 -176.67989 536.0
-205.98161 -176.02063 534.0
-201.47905 -175.36137 532.0
-197.00455 -174.70213 530.0
-192.92276 -174.37251 529.0
-189.21272 -174.37251 529.0
-185.50267 -174.37251 529.0
-181.79263 -174.37251 529.0
-178.75584 -175.03175 531.0
-175.69101 -175.69101 533.0
-172.92075 -176.67989 536.0
-170.42401 -177.99838 540.0
-167.87115 -179.3169 544.0
-166.77007 -182.28354 553.0
-163.77536 -183.27243 556.0
-160.45105 -183.93167 558.0
-157.37921 -184.92055 561.0
-153.71825 -185.25018 562.0
-149.77676 -185.25018 562.0
-146.09474 -185.57982 563.0
-142.6512 -186.23906 565.0
-138.68867 -186.23906 565.0
-135.4415 -187.22794 568.0
-131.68938 -187.55757 569.0
-128.37206 -188.54645 572.0
-124.57784 -188.87607 573.0
-121.4008 -190.19458 577.0
-117.96427 -191.18346 580.0
-114.87841 -192.83159 585.0
-111.34367 -193.82047 588.0
-107.58453 -194.47974 590.0
-104.49867 -196.45749 596.0
-100.655365 -197.11674 598.0
-97.10662 -198.43524 602.0
-93.501755 -199.75375 606.0
-89.840805 -201.07227 610.0
-85.98347 -202.06114 613.0
-244.40065 -177.74591 528.0
-240.6976 -177.74591 528.0
-236.54572 -177.40927 527.0
-240.36098 -183.13216 544.0
-236.98055 -183.46878 545.0
-223.44481 -181.78558 540.0
-218.4373 -180.77567 537.0
-214.27136 -180.43904 536.0
-210.11948 -180.10239 535.0
-205.59587 -179.42911 533.0
-201.10034 -178.75583 531.0
-196.63284 -178.08255 529.0
-192.92276 -178.08255 529.0
-189.21272 -178.08255 529.0
-185.50267 -178.08255 529.0
-182.13628 -178.41919 530.0
-179.0925 -179.09247 532.0
-176.02063 -179.76575 534.0
-173.24336 -180.77567 537.0
-171.3708 -182.7955 543.0
-168.48834 -183.80544 546.0
-166.77007 -186.16191 553.0
-163.4808 -186.83519 555.0
-160.1635 -187.50847 557.0
-157.09868 -188.51839 560.0
-153.44473 -188.85504 561.0
-149.51025 -188.85504 561.0
-145.83525 -189.19167 562.0
-142.14624 -189.5283 563.0
-138.68867 -190.20158 565.0
-134.72614 -190.20158 565.0
-131.45793 -191.2115 568.0
-127.69878 -191.54816 569.0
-124.57784 -192.8947 573.0
-121.19041 -193.90463 576.0
-117.96427 -195.25119 580.0
-114.68204 -196.59775 584.0
-111.34367 -197.9443 588.0
-107.766884 -198.95422 591.0
-104.32333 -200.30078 595.0
-100.655365 -201.3107 598.0
-257.74002 -180.41801 525.0
-253.5741 -180.07436 524.0
-249.89911 -180.07436 524.0
-246.2241 -180.07436 524.0
-243.01201 -180.41801 525.0
-239.78587 -180.76166 526.0
-236.54572 -181.10532 527.0
-239.03545 -185.91647 541.0
-235.67606 -186.26012 542.0
-230.59138 -185.22916 539.0
-226.8112 -185.22916 539.0
-222.61723 -184.88551 538.0
-217.62375 -183.85454 535.0
-213.47183 -183.5109 534.0
-209.72672 -183.5109 534.0
-205.59587 -183.16724 533.0
-201.10034 -182.47993 531.0
-197.00455 -182.13629 530.0
-192.92276 -181.79262 529.0
-189.21272 -181.79262 529.0
-185.50267 -181.79262 529.0
-182.13628 -182.13629 530.0
-179.42914 -183.16724 533.0
-176.02063 -183.5109 534.0
-174.21121 -185.57281 540.0
-171.6864 -186.94742 544.0
-169.1055 -188.32204 548.0
-166.16692 -189.353 551.0
-163.18623 -190.38396 554.0
-159.30086 -190.38396 554.0
-155.41547 -190.38396 554.0
-152.07713 -191.07127 556.0
-148.71074 -191.75858 558.0
-145.05676 -192.10222 559.0
-141.64128 -192.78954 561.0
-138.19774 -193.47684 563.0
-134.48769 -193.8205 564.0
-130.76361 -194.16414 565.0
-127.47434 -195.19511 568.0
-124.36043 -196.56972 572.0
-120.98 -197.60068 575.0
-117.96427 -199.31894 580.0
-114.68204 -200.69357 584.0
-111.34367 -202.06818 588.0
-107.94923 -203.4428 592.0
-263.08417 -182.69734 521.0
-259.4302 -182.69734 521.0
-255.77628 -182.69734 521.0
-252.60625 -183.04802 522.0
-248.9453 -183.04802 522.0
-244.81444 -182.69734 521.0
-241.16048 -182.69734 521.0
-237.50655 -182.69734 521.0
-235.64801 -184.1 525.0
-238.15178 -189.00934 539.0
-234.37157 -189.00934 539.0
-229.73576 -188.30801 537.0
-225.54881 -187.95734 536.0
-220.9621 -187.25601 534.0
-217.21698 -187.25601 534.0
-213.07208 -186.90533 533.0
-209.33398 -186.90533 533.0
-205.21014 -186.55467 532.0
-200.7216 -185.85335 530.0
-197.00455 -185.85335 530.0
-192.92276 -185.50267 529.0
-189.21272 -185.50267 529.0
-185.85333 -185.85335 530.0
-182.47993 -186.20401 531.0
-179.42914 -186.90533 533.0
-176.35027 -187.60667 535.0
-174.53381 -189.71068 541.0
-172.002 -191.11334 545.0
-168.79692 -191.81467 547.0
-165.86534 -192.86667 550.0
-162.30257 -193.21735 551.0
-158.72577 -193.56801 552.0
-155.41547 -194.26935 554.0
-151.53009 -194.26935 554.0
-147.91121 -194.62001 555.0
-144.27829 -194.97067 556.0
-140.88383 -195.67201 558.0
-137.7068 -196.72401 561.0
-134.24924 -197.42534 563.0
-130.76361 -198.12668 565.0
-127.47434 -199.17867 568.0
-124.36043 -200.58134 572.0
-121.19041 -201.98401 576.0
-114.68204 -204.78934 584.0
-280.89804 -188.49736 527.0
-274.04602 -186.35129 521.0
-270.39206 -186.35129 521.0
-266.22614 -185.9936 520.0
-262.57922 -185.9936 520.0
-258.93228 -185.9936 520.0
-255.28534 -185.9936 520.0
-250.67056 -185.27824 518.0
-246.08385 -184.56288 516.0
-241.52516 -183.84753 514.0
-238.38321 -184.2052 515.0
-235.2272 -184.56288 516.0
-232.05719 -184.92056 517.0
-236.38441 -191.3588 535.0
-232.63228 -191.3588 535.0
-228.45232 -191.00113 534.0
-224.2864 -190.64345 533.0
-220.5483 -190.64345 533.0
-216.40343 -190.28577 532.0
-212.27257 -189.92809 531.0
-208.54848 -189.92809 531.0
-204.43867 -189.5704 530.0
-200.3429 -189.21274 529.0
-196.63284 -189.21274 529.0
-192.92276 -189.21274 529.0
-189.21272 -189.21274 529.0
-185.85333 -189.5704 530.0
-182.47993 -189.92809 531.0
-179.76578 -191.00113 534.0
-177.00952 -192.07416 537.0
-174.53381 -193.50488 541.0
-172.002 -194.9356 545.0
-168.48834 -195.29329 546.0
-164.96063 -195.65097 547.0
-161.41887 -196.00865 548.0
-158.15067 -196.724 550.0
-154.57387 -197.08168 551.0
-151.25656 -197.79704 553.0
-147.64471 -198.15472 554.0
-143.7593 -198.15472 554.0
-140.63136 -199.22777 557.0
-136.9704 -199.58545 558.0
-134.01079 -201.01616 562.0
-130.76361 -202.0892 565.0
-127.47434 -203.16225 568.0
-124.36043 -204.59297 572.0
-279.1938 -188.54646 517.0
-275.5679 -188.54646 517.0
-272.99402 -189.27585 519.0
-268.31613 -188.54646 517.0
-264.69022 -188.54646 517.0
-261.06433 -188.54646 517.0
-257.43845 -188.54646 517.0
-250.86694 -186.35829 511.0
-247.76706 -186.72299 512.0
-244.65314 -187.08768 513.0
-240.1155 -186.35829 511.0
-237.45746 -187.08768 513.0
-234.31548 -187.45238 514.0
-231.15947 -187.81708 515.0
-235.0589 -194.01686 532.0
-231.76262 -194.38156 533.0
-227.5967 -194.01686 532.0
-223.44481 -193.65216 531.0
-219.30695 -193.28748 530.0
-215.58987 -193.28748 530.0
-211.47304 -192.92278 529.0
-207.76299 -192.92278 529.0
-204.05295 -192.92278 529.0
-200.3429 -192.92278 529.0
-196.26114 -192.55809 528.0
-192.92276 -192.92278 529.0
-189.21272 -192.92278 529.0
-185.85333 -193.28748 530.0
-183.16724 -194.38156 533.0
-179.76578 -194.74625 534.0
-177.00952 -195.84032 537.0
-174.53381 -197.29909 541.0
-171.6864 -198.39317 544.0
-167.87115 -198.39317 544.0
-164.65904 -199.12256 546.0
-160.82976 -199.12256 546.0
-157.86311 -200.21664 549.0
-154.29333 -200.58133 550.0
-150.436 -200.58133 550.0
-147.3782 -201.67542 553.0
-143.7593 -202.0401 554.0
-140.37889 -202.7695 556.0
-137.21587 -203.86357 559.0
-134.01079 -204.95766 562.0
-130.76361 -206.05173 565.0
-127.69878 -207.51051 569.0
-279.53745 -189.94211 511.0
-277.5737 -191.05722 514.0
-273.96884 -191.05722 514.0
-270.364 -191.05722 514.0
-266.75916 -191.05722 514.0
-260.08246 -188.827 508.0
-256.51968 -188.827 508.0
-253.45485 -189.1987 509.0
-250.376 -189.5704 510.0
-246.31529 -189.1987 509.0
-243.22241 -189.5704 510.0
-239.64561 -189.5704 510.0
-236.53168 -189.94211 511.0
-233.40375 -190.31381 512.0
-230.71063 -191.05722 514.0
-234.61705 -197.37624 531.0
-230.45815 -197.00453 530.0
-226.74107 -197.00453 530.0
-223.024 -197.00453 530.0
-218.89316 -196.63283 529.0
-215.18312 -196.63283 529.0
-211.47304 -196.63283 529.0
-207.76299 -196.63283 529.0
-203.6672 -196.26112 528.0
-200.3429 -196.63283 529.0
-196.63284 -196.63283 529.0
-192.92276 -196.63283 529.0
-189.21272 -196.63283 529.0
-186.20401 -197.37624 531.0
-183.16724 -198.11964 533.0
-180.1024 -198.86307 535.0
-177.33914 -199.9782 538.0
-174.21121 -200.7216 540.0
-171.0552 -201.46501 542.0
-167.56256 -201.83672 543.0
-164.05591 -202.20842 544.0
-160.82976 -202.95183 546.0
-157.28802 -203.32355 547.0
-154.0128 -204.06696 549.0
-150.436 -204.43867 550.0
-146.84518 -204.81038 551.0
-143.7593 -205.92549 554.0
-140.37889 -206.6689 556.0
-137.21587 -207.78403 559.0
-134.24924 -209.27084 563.0
-278.99042 -193.1472 510.0
-275.95364 -193.52592 511.0
-270.77078 -192.38976 508.0
-266.682 -192.01103 507.0
-262.60727 -191.63232 506.0
-259.5705 -192.01103 507.0
-256.0147 -192.01103 507.0
-252.45897 -192.01103 507.0
-248.90321 -192.01103 507.0
-245.83136 -192.38976 508.0
-242.2686 -192.38976 508.0
-239.1757 -192.76846 509.0
-236.0688 -193.1472 510.0
-233.40375 -193.90463 512.0
-230.71063 -194.66206 514.0
-234.1752 -200.7216 530.0
-230.0233 -200.34286 529.0
-225.88545 -199.96416 528.0
-222.1824 -199.96416 528.0
-218.47937 -199.96416 528.0
-214.36957 -199.58543 527.0
-211.07327 -199.96416 528.0
-207.37025 -199.96416 528.0
-203.6672 -199.96416 528.0
-200.3429 -200.34286 529.0
-196.63284 -200.34286 529.0
-192.92276 -200.34286 529.0
-189.5704 -200.7216 530.0
-186.55467 -201.47903 532.0
-183.5109 -202.23647 534.0
-180.43906 -202.99391 536.0
-177.33914 -203.75136 538.0
-174.21121 -204.5088 540.0
-170.73961 -204.88751 541.0
-167.25398 -205.26624 542.0
-163.75433 -205.64496 543.0
-160.24063 -206.02367 544.0
-157.00047 -206.78111 546.0
-153.45174 -207.15984 547.0
-150.16249 -207.91727 549.0
-147.1117 -209.05344 552.0
-143.7593 -209.81087 554.0
-140.63136 -210.94704 557.0
-274.6141 -193.63812 502.0
-271.09338 -193.63812 502.0
-268.63873 -194.40959 504.0
-265.104 -194.40959 504.0
-261.5693 -194.40959 504.0
-258.03458 -194.40959 504.0
-255.0048 -194.79533 505.0
-251.46307 -194.79533 505.0
-248.41228 -195.18106 506.0
-245.34746 -195.56679 507.0
-241.7917 -195.56679 507.0
-237.76604 -195.18106 506.0
-233.75441 -194.79533 505.0
-230.66855 -195.18106 506.0
-228.9152 -196.72398 510.0
-225.78026 -197.10973 511.0
-227.84917 -202.12425 524.0
-224.602 -202.51 525.0
-221.3408 -202.89574 526.0
-217.65181 -202.89574 526.0
-214.36957 -203.28146 527.0
-210.67352 -203.28146 527.0
-207.37025 -203.66719 528.0
-204.05295 -204.05293 529.0
-200.3429 -204.05293 529.0
-197.00455 -204.43866 530.0
-193.65216 -204.82439 531.0
-190.28577 -205.21013 532.0
-187.25601 -205.98158 534.0
-183.5109 -205.98158 534.0
-180.43906 -206.75305 536.0
-177.00952 -207.1388 537.0
-173.88858 -207.91026 539.0
-170.42401 -208.29599 540.0
-166.63681 -208.29599 540.0
-163.45276 -209.06746 542.0
-159.94608 -209.45319 543.0
-156.71294 -210.22466 545.0
-153.45174 -210.99612 547.0
-150.436 -212.15334 550.0
-147.64471 -213.69626 554.0
-144.27829 -214.46773 556.0
-272.973 -195.98058 499.0
-270.01334 -196.37332 500.0
-267.03967 -196.76607 501.0
-264.052 -197.15881 502.0
-261.0503 -197.55156 503.0
-257.5226 -197.55156 503.0
-254.49983 -197.9443 504.0
-250.96512 -197.9443 504.0
-247.4304 -197.9443 504.0
-242.92786 -197.15881 502.0
-239.40717 -197.15881 502.0
-235.88646 -197.15881 502.0
-232.36577 -197.15881 502.0
-229.7568 -197.9443 504.0
-226.67094 -198.33705 505.0
-231.52419 -205.79924 524.0
-227.41434 -205.4065 523.0
-224.1742 -205.79924 524.0
-220.92001 -206.19199 525.0
-217.238 -206.19199 525.0
-214.36957 -206.97748 527.0
-211.07327 -207.37022 528.0
-207.76299 -207.76297 529.0
-204.05295 -207.76297 529.0
-200.7216 -208.15572 530.0
-197.37625 -208.54848 531.0
-194.01686 -208.94121 532.0
-190.64345 -209.33397 533.0
-187.25601 -209.7267 534.0
-183.5109 -209.7267 534.0
-180.43906 -210.51219 536.0
-176.6799 -210.51219 536.0
-173.56598 -211.2977 538.0
-170.42401 -212.08319 540.0
-166.63681 -212.08319 540.0
-163.45276 -212.86868 542.0
-160.24063 -213.65417 544.0
-157.00047 -214.43967 546.0
-153.45174 -214.83241 547.0
-150.70953 -216.40341 551.0
-147.64471 -217.58165 554.0
-271.33185 -198.28096 496.0
-268.9333 -199.08049 498.0
-265.97366 -199.48026 499.0
-263.0 -199.88002 500.0
-260.5313 -200.67953 502.0
-256.49866 -200.27977 501.0
-251.97504 -199.48026 499.0
-248.47539 -199.48026 499.0
-244.97574 -199.48026 499.0
-241.47609 -199.48026 499.0
-237.97646 -199.48026 499.0
-234.47676 -199.48026 499.0
-231.90288 -200.27977 501.0
-228.84508 -200.67953 502.0
-226.22209 -201.47905 504.0
-231.08234 -209.0745 523.0
-227.41434 -209.0745 523.0
-224.1742 -209.47424 524.0
-220.92001 -209.87401 525.0
-217.65181 -210.27376 526.0
-214.77634 -211.0733 528.0
-211.47304 -211.47305 529.0
-208.15575 -211.87282 530.0
-204.8244 -212.27257 531.0
-201.47905 -212.67233 532.0
-198.49138 -213.47185 534.0
-194.74623 -213.47185 534.0
-191.00111 -213.47185 534.0
-187.25601 -213.47185 534.0
-183.85454 -213.87161 535.0
-180.43906 -214.27136 536.0
-176.6799 -214.27136 536.0
-173.56598 -215.07089 538.0
-170.42401 -215.8704 540.0
-166.9454 -216.27017 541.0
-163.75433 -217.0697 543.0
-160.24063 -217.46947 544.0
-157.28802 -218.66873 547.0
-270.2378 -200.94603 494.0
-267.85324 -201.75958 496.0
-265.44064 -202.57314 498.0
-260.896 -201.75958 496.0
-257.41742 -201.75958 496.0
-253.93878 -201.75958 496.0
-250.46016 -201.75958 496.0
-246.98155 -201.75958 496.0
-244.4848 -202.57314 498.0
-241.47609 -202.97989 499.0
-237.97646 -202.97989 499.0
-234.47676 -202.97989 499.0
-230.97713 -202.97989 499.0
-227.93333 -203.38667 500.0
-224.87553 -203.79344 501.0
-231.08234 -212.74246 523.0
-227.84917 -213.14923 524.0
-224.602 -213.55602 525.0
-221.76161 -214.36955 527.0
-218.89316 -215.18309 529.0
-215.18312 -215.18309 529.0
-211.8728 -215.58989 530.0
-208.94124 -216.40341 532.0
-205.59587 -216.8102 533.0
-202.2365 -217.21696 534.0
-198.49138 -217.21696 534.0
-194.74623 -217.21696 534.0
-191.00111 -217.21696 534.0
-187.25601 -217.21696 534.0
-183.85454 -217.62375 535.0
-180.43906 -218.03052 536.0
-176.6799 -218.03052 536.0
-173.88858 -219.25082 539.0
-170.42401 -219.6576 540.0
-166.9454 -220.06438 541.0
-163.75433 -220.87793 543.0
-268.59665 -203.16927 491.0
-265.1531 -203.16927 491.0
-261.70953 -203.16927 491.0
-258.26602 -203.16927 491.0
-256.37943 -204.41061 494.0
-252.91486 -204.41061 494.0
-249.45024 -204.41061 494.0
-246.98155 -205.23819 496.0
-243.50294 -205.23819 496.0
-240.02434 -205.23819 496.0
-237.02263 -205.65198 497.0
-234.00688 -206.06577 498.0
-230.51425 -206.06577 498.0
-227.47748 -206.47955 499.0
-223.97783 -206.47955 499.0
-231.08234 -216.41043 523.0
-227.84917 -216.82422 524.0
-224.602 -217.238 525.0
-221.76161 -218.06558 527.0
-218.89316 -218.89316 529.0
-215.18312 -218.89316 529.0
-212.27257 -219.72073 531.0
-209.33398 -220.54831 533.0
-205.98161 -220.9621 534.0
-202.2365 -220.9621 534.0
-198.86307 -221.37585 535.0
-195.47563 -221.78964 536.0
-191.35881 -221.37585 535.0
-187.60667 -221.37585 535.0
-184.1982 -221.78964 536.0
-180.43906 -221.78964 536.0
-177.00952 -222.20343 537.0
-174.21121 -223.4448 540.0
-170.42401 -223.4448 540.0

